# This PCD file was generated using the MATLAB® pcwrite function
# from Computer Vision System Toolbox®.
# .PCD v.7 - Point Cloud Data file format
VERSION .7
FIELDS x y z
SIZE 8 8 8
TYPE F F F
COUNT 1 1 1
WIDTH 883
HEIGHT 1
VIEWPOINT 0 0 0 1 0 0 0
POINTS 883
DATA ascii
0.344752292754709 0.067850411283790 0.190458979710285
0.441378182561912 0.065359599223860 0.199093919993445
0.467745957548627 0.056541618661375 0.196539549511245
0.485319079038324 0.059272023604473 0.189797745061187
0.505801182603522 0.070027418321205 0.185286767185644
0.516675666041911 0.084860908055049 0.193187570995571
0.530068010931738 0.097748265907819 0.184435807862835
0.342914834501083 0.121716013407621 0.191012387673833
0.361837055662192 0.117157462434815 0.198139441089296
0.542168798802329 0.118492564869053 0.184184939035318
0.340280084103697 0.139347571574518 0.193442846909139
0.548317134956578 0.146053067910825 0.193649165658502
0.550789983667589 0.139245440671493 0.184021755766079
0.343118714665269 0.157863235411891 0.194496324494047
0.356568171931583 0.170689634383567 0.193206067070472
0.555268678711789 0.162471282098941 0.193369514035989
0.348308715842835 0.180084954931195 0.190023708131903
0.362472477395705 0.188385359127462 0.190473144004669
0.542396453390549 0.194908427408808 0.196677040809046
0.562842725967040 0.188428035004296 0.189321793541397
0.369212303901290 0.210251072856675 0.187122163084420
0.387557762002229 0.213178228819574 0.193244871019894
0.405584896222371 0.215823953396719 0.194643310275632
0.568389156462811 0.209971002109945 0.184774706123592
0.367651713016694 0.228670167715169 0.195332163609566
0.386997975011669 0.237517558835251 0.185548819871703
0.408541906494846 0.240953764859262 0.192743455800935
0.430999618206916 0.243747954745936 0.199467713569747
0.564027623209537 0.235048290619596 0.190884988287863
0.578369772292783 0.241026153752776 0.177317375561214
0.373517418942496 0.262651254219875 0.192287581746331
0.391088626840645 0.262238401375448 0.184647048660335
0.412502811964418 0.263050930144338 0.188819324506919
0.429557476132741 0.266232181103659 0.194907927983309
0.564491374788673 0.266647559754012 0.197501095114269
0.579814220588062 0.262144918252583 0.181611735977622
0.369322119955988 0.289867457686724 0.195594588938292
0.392332798839955 0.287199055540394 0.183301443200433
0.411742826775684 0.288565758730070 0.189800257923985
0.430937331637561 0.290641048834921 0.193950886821368
0.568060206776894 0.287077692885450 0.193683665695925
0.580935544657883 0.289141335567611 0.187295032239400
0.368646591259092 0.315423819052618 0.183999139575289
0.389186714741873 0.314516294878045 0.182928316481095
0.411915431679349 0.313766687441236 0.191249022824376
0.434237302902811 0.308692544123048 0.196828412851464
0.548276061447893 0.316825173712918 0.193869270145606
0.566515763107168 0.308910439463423 0.195005647682858
0.578486028919943 0.313903731659720 0.196465689809605
0.362396241908791 0.341886957321456 0.179581968183703
0.390048036012688 0.337047945451928 0.187905315027667
0.407774846025428 0.336403099920048 0.185135343382090
0.569516854846603 0.333313407433780 0.196425964874517
0.579111975357264 0.334892077811579 0.194234949511226
0.341317111252137 0.369443499515853 0.187018001273630
0.364505876798825 0.364813356229941 0.184095043269288
0.386535054502618 0.361515436459035 0.188234120097017
0.402771739389060 0.354942335331506 0.199237984399773
0.465137457331089 0.350086787425787 0.196727583889259
0.338029193441710 0.392857647444804 0.180584696424510
0.362067709865061 0.388100213166845 0.188384535981765
0.381544385786416 0.383872996099673 0.192695358633230
0.577991676516272 0.386080429170226 0.198338976478726
0.319585026922460 0.414498927438029 0.188990859896851
0.338627250991288 0.413622967637734 0.185879652950670
0.358362453223458 0.410956691731280 0.191229330952071
0.579926303166513 0.407750922820106 0.191017007324063
0.296766091093919 0.446695273186476 0.190234349353637
0.313129959263363 0.438346466712764 0.188174792047697
0.336324843925354 0.434760193811214 0.192907738410501
0.547494572658146 0.448321522549070 0.196918517463674
0.563689861429345 0.438120781092377 0.191891404039943
0.578337033543852 0.443211569842559 0.187338213791036
0.291457281123684 0.466642654663084 0.185723694026179
0.311589966330317 0.460668507940275 0.184773250670148
0.329893315488916 0.454228523231113 0.191807498767542
0.548151630764873 0.464228212998682 0.194444699345486
0.561394985227016 0.463689439946765 0.194106334570807
0.579832293256755 0.459446719091306 0.191566564806635
0.270555417796380 0.487577144727318 0.183109510058603
0.287447039192912 0.487337502550790 0.185921143022706
0.305719474273930 0.485001352746730 0.184924927851052
0.548540701677027 0.485137928666064 0.192956794232327
0.566465624240362 0.485282547956925 0.191957307207785
0.579030800451201 0.487571175268997 0.188018600271462
0.245310832248266 0.516603789239239 0.190098596056973
0.262624866329604 0.512921513844095 0.185009741086365
0.281361570210674 0.509010891213134 0.191886706676721
0.542206464654052 0.509768228955091 0.192575681089992
0.562374416505142 0.507695187458984 0.187329251906340
0.369466814745111 0.019344483883408 0.217783366657358
0.387154921418573 0.017541878123942 0.214577471726526
0.409088189270505 0.019209201862179 0.206959351966277
0.340408778072829 0.042602996052638 0.223370285662180
0.360597299350979 0.032844874580884 0.216790066112087
0.387618371624735 0.038956341539585 0.215684990525535
0.413074513001555 0.038506657563860 0.206946169449079
0.434246769995530 0.041266497853807 0.206342486450783
0.454391753641874 0.047574886328070 0.205306652527389
0.340434477557360 0.071919362185158 0.212476077455768
0.368929964121249 0.061619782880644 0.219551042608372
0.388671270117748 0.064111286525159 0.215829373254462
0.412095837174880 0.063967174869973 0.217438511538034
0.436715812840481 0.063856431620623 0.210539926052884
0.461192067674524 0.066436570929138 0.207347546518393
0.482965166049625 0.070825392565081 0.210224969255883
0.335741099346607 0.095045110538563 0.221489116972075
0.361244917173484 0.089093602416229 0.222164729158444
0.388088691195845 0.089753069138723 0.218698105086772
0.411314411109636 0.087412945463309 0.219494149518672
0.436859550003117 0.084217759320642 0.219108908097300
0.464217716052384 0.083922422571819 0.217214551571670
0.489142624493374 0.085105596139434 0.215348490057528
0.506776927153774 0.090507890184183 0.216943573069135
0.324674731621434 0.124921209144029 0.224768406977955
0.338606858028550 0.111363592675661 0.218381774580057
0.362057513887060 0.112238328502110 0.217318454775197
0.386669308971059 0.108924247653389 0.218435671838715
0.411635455756073 0.108889594800262 0.217271944875596
0.459713299524208 0.110066884800075 0.218537380146069
0.515201095852232 0.108003864831580 0.219841430539933
0.529186397314224 0.112782881106519 0.207954018625203
0.324754700876167 0.135266841185688 0.224498581935872
0.340857566661056 0.135884551825234 0.210665023477713
0.362134770868874 0.137983298720030 0.219767442199380
0.386293812393113 0.135004014852776 0.220982313334149
0.408596949478885 0.133122222337194 0.220050477704985
0.437619436473548 0.140397646290151 0.224621584079185
0.535519538158169 0.135074821321462 0.213236684616676
0.341548798250222 0.162438662341463 0.210687566330690
0.364166122832558 0.162562849363773 0.212043740886460
0.387584341478209 0.162775169788395 0.215852834809847
0.404902901572962 0.162904442097659 0.220572029896295
0.542133550418408 0.164214239808756 0.213536272309969
0.550766429037845 0.163112409838531 0.204088330858633
0.344149336644043 0.187444669724938 0.218480625050469
0.365213005956734 0.185845964032590 0.205589094458271
0.386546804811319 0.187929885655208 0.208131159646866
0.409179743543004 0.189974163280224 0.216245005261649
0.435568584684503 0.190799667247385 0.219217670360601
0.541214159663784 0.186659386666813 0.217760644271134
0.555124626101776 0.187856629373721 0.202181685359472
0.356319974956643 0.208928372092078 0.210452241942891
0.387991509834568 0.210236249281979 0.204387618830053
0.413174948720657 0.212885869644183 0.213359009392135
0.436297669181620 0.216950492864917 0.219015583903805
0.463804501573628 0.221367429634406 0.222673829421845
0.492711984064092 0.220805356340858 0.219983986094117
0.515988713943869 0.218026389636043 0.217515250365425
0.535904804196442 0.214369447886868 0.215450488246994
0.555844645782126 0.214025883802353 0.204322217720209
0.394648282733352 0.225487387920502 0.200825885362006
0.412899271424554 0.234965552189823 0.205465185358541
0.437389425716317 0.236481945178999 0.216922794562104
0.460557169055500 0.240575091972363 0.218959322054934
0.490075304130192 0.239676114547301 0.220244900765835
0.511034831031860 0.237852736822646 0.218599371564192
0.537289178192024 0.237922241417088 0.214431674820692
0.558531323806081 0.240646724762057 0.203859893963823
0.418644065897254 0.258877343596414 0.202699321182738
0.437680697800863 0.260482259723076 0.211175627226231
0.463159431662291 0.262793313245315 0.218055491956657
0.487284346714666 0.261788449314258 0.220252196692382
0.514453431742781 0.265109818573630 0.215818998991903
0.536807485789179 0.260929194128704 0.216300797472703
0.560222093620726 0.258890846501026 0.205089919744565
0.416552445226559 0.287404950243609 0.201790166476360
0.440062114579486 0.286088926979304 0.210727183428714
0.459864090070565 0.284841012338801 0.218967329932757
0.486064909629266 0.286405132073301 0.216850056733429
0.511669517932171 0.286429807730393 0.218811500235975
0.539792762802305 0.286405250116205 0.214661265621034
0.560433806334944 0.288796641307554 0.206448636997175
0.357823739472107 0.311655527090464 0.215028214651544
0.396602480475346 0.307924371268473 0.203330961831282
0.416927439392862 0.311202174665673 0.204514501147004
0.437904452160533 0.313526718672572 0.211743272761902
0.460693549569625 0.310948195294827 0.215778599693773
0.488057719214248 0.309211167400178 0.222007520979602
0.511576695889291 0.311061370367386 0.219868339638104
0.538755558247423 0.312467725930402 0.212961240453073
0.561983300220690 0.314274534947502 0.206714803097664
0.576458512800540 0.312972870765521 0.204231398717469
0.341049840968265 0.347016806287513 0.220885117743791
0.354711564765713 0.328180605474454 0.206536411474963
0.396115504323708 0.348971084589036 0.205436644911131
0.416101835073088 0.339101220744542 0.211581790274693
0.437263195613893 0.335284178709255 0.215852120139470
0.461276356033006 0.335482307792673 0.218411420385901
0.486675253114353 0.328379279831252 0.221563061263612
0.507948765822847 0.331345978707422 0.222660362707587
0.538203319003140 0.337736228993177 0.217601192520450
0.561617572385593 0.339131566609220 0.209851481257096
0.576323183605826 0.343909760404581 0.204780010499541
0.339369963413122 0.359241974279773 0.206215162621347
0.390928766948684 0.362481757485125 0.210927707690994
0.412248028292281 0.363743690894951 0.215220989846030
0.431522479647862 0.355089313245336 0.218306220983710
0.453055175981528 0.351710816423066 0.224711551372968
0.514156001602960 0.362290542062271 0.222523081326748
0.536484334166201 0.365251524101359 0.221747746474249
0.561322315494194 0.363519768549334 0.212922708661581
0.576755281692081 0.359616483517208 0.203075879935629
0.324280080983112 0.390406447280322 0.204783270356099
0.369926328126848 0.391116225719136 0.210502970303324
0.388094164767569 0.388274679891601 0.215325285790900
0.407192359026486 0.385689136772318 0.215621692475452
0.437600108952398 0.382592172140678 0.224933321245323
0.524885122914158 0.382654507199992 0.224661440478149
0.541542898819124 0.387941430938256 0.219855331085419
0.561749205615475 0.388383076933865 0.213928723062043
0.577432010869271 0.375451444085137 0.200469429607852
0.311521761585161 0.416291831552097 0.204381215755246
0.341312881616787 0.416958153501010 0.210424480497272
0.364861526125949 0.414648377859199 0.216555621748086
0.384735525600475 0.408906067854642 0.213879714263861
0.427752821782697 0.403448167095531 0.223077947564715
0.539977321805120 0.415617857814015 0.220272324207807
0.562867059333657 0.411736822946053 0.213387232376467
0.291351049653395 0.438269021062924 0.213761750303676
0.316927563091658 0.437248639132683 0.209837903600524
0.337996506651557 0.440040575386516 0.212015084391193
0.359139113578375 0.435200192151455 0.217208745150570
0.539051310216579 0.436617033699813 0.216302956567494
0.560593887436783 0.436481108094540 0.211283627620120
0.577359907190488 0.437461041942355 0.200924430528009
0.258588707573429 0.470564873749548 0.222236033671631
0.288839930860254 0.463094411532583 0.202391348622416
0.316027106383740 0.466880243160254 0.212095653725867
0.336962661076000 0.461099847065074 0.216441710827589
0.350878465636727 0.455050603755676 0.222765635033841
0.534499582601829 0.459946729043196 0.217345877677587
0.561334294420882 0.462086136247411 0.207043219617455
0.577097855980752 0.468309401524549 0.201937291351867
0.248924758785053 0.491591789091995 0.219563500366602
0.258340121580679 0.489162447938574 0.200677159068661
0.294024643688870 0.490741477853928 0.207741171900607
0.314382914528082 0.484710759637674 0.214876232007887
0.333787951971003 0.483064507899405 0.217463958916068
0.350605713563278 0.490967608138357 0.223801492519088
0.524905509096503 0.475402297323672 0.224663123915600
0.541759590785485 0.487232109479984 0.214131288330357
0.555756240837970 0.485343020412984 0.211368209878287
0.235781223654876 0.518857769972351 0.209630237900642
0.273934953623108 0.509954525140554 0.200027312411883
0.290208719930142 0.511133992330460 0.211757207806638
0.311755487689746 0.507670393303737 0.219916195709387
0.540117181208334 0.509047054261337 0.210566801706166
0.550067348949911 0.503799876494770 0.206924257901697
0.322340633016685 0.012419075844142 0.245674077910319
0.336071500582195 0.015523639138678 0.239099084821783
0.358078511796301 0.014606044866314 0.232327044316424
0.324038589544920 0.040368442260753 0.249415055701046
0.336794265600564 0.036813212595225 0.239828335263636
0.363738388872342 0.038807935871600 0.233201620521292
0.383887672886549 0.037083075882736 0.227589296981847
0.400380920416647 0.047178711144827 0.230013383261170
0.338705506644940 0.060249474545343 0.238762566001385
0.359443223672306 0.063946891714507 0.233035955990357
0.380490486856244 0.052541110201863 0.227507039909887
0.401324878287900 0.068110517346896 0.226142929200881
0.318972210725322 0.094327191529902 0.249284193415960
0.338944200617487 0.084496002199475 0.233719597742791
0.362634236381539 0.088150049207907 0.232458103349560
0.389712257544122 0.085961983699709 0.228297101060123
0.412366802815767 0.087677424758313 0.228272753109707
0.437157037560245 0.093068885798873 0.230973308783003
0.459881851421413 0.092806636605049 0.233133414298783
0.485372718208037 0.096454700537463 0.230130879425713
0.509175793589788 0.093938574020584 0.225743509244117
0.323096837607620 0.113963347762438 0.231650061640182
0.339970759611835 0.104255399965446 0.225365144127527
0.363049518633166 0.118008083071360 0.231378081800271
0.386375330075748 0.111877037559647 0.230454114133541
0.415026120014899 0.113430631278705 0.230517284319292
0.437132276397508 0.114103368457943 0.236997783050552
0.462278412120007 0.112982838659772 0.239761953412893
0.488145897925199 0.113367469412895 0.237946093038690
0.511088003694925 0.119464352516179 0.232954816248306
0.529784750153958 0.124841618115707 0.225546750195898
0.321576432727056 0.139065025449069 0.238164749721268
0.343538271816766 0.137966299516380 0.231940980811798
0.357373731535433 0.136810484913807 0.229811705140043
0.388161382516303 0.137756711710700 0.229155601485301
0.413911072959308 0.139971274266889 0.235844458187996
0.437198209590528 0.137301286362608 0.237790265228220
0.457502347121751 0.136700393178294 0.242664623495397
0.487078915518423 0.137535670969143 0.247217255642273
0.512028943748812 0.137829224297420 0.240978432995308
0.527826533504980 0.144706167694275 0.233112578886512
0.359445266262585 0.150211966909141 0.229793982295959
0.387134796051283 0.152559559982770 0.231885023508614
0.415611523055253 0.162332291578568 0.234222210947714
0.435076758661228 0.161872603180557 0.243259059779386
0.462600703696251 0.163808761478946 0.247856631956308
0.487825347125140 0.163995298413744 0.245943970823819
0.516011751575051 0.164774210979034 0.242542128507933
0.530916118556762 0.161194404280239 0.233095819771638
0.415547026752644 0.182844152492319 0.231008366898328
0.436436120825003 0.186192638259910 0.237352822738697
0.463705203499424 0.191340329371517 0.241215438427103
0.488906388604971 0.193032955331653 0.242194378424760
0.513026294259817 0.190383538813448 0.239426915718720
0.532196890511232 0.191161222984058 0.232111783902801
0.349552803530081 0.215001133324131 0.249726059491750
0.422117852569926 0.212504706852373 0.225150863247327
0.439031974137887 0.207464347144686 0.228449913093552
0.461051502019877 0.209732229538228 0.236291690907513
0.487115162132807 0.210703148099960 0.237451857577913
0.510086376642671 0.206210679730817 0.235686498125779
0.534169434367843 0.210862563176094 0.228418978432746
0.357054877824539 0.231469260466404 0.239804046641749
0.444644904283113 0.240583745101011 0.227472093830825
0.465272356626629 0.235026200863747 0.231120492622007
0.486051320170249 0.235441401908846 0.232108775009198
0.509760127643047 0.238121723975744 0.230292329752758
0.526785661697221 0.247216320555812 0.237104889627011
0.470696886213537 0.261377849288355 0.225842584246612
0.487842964358502 0.260239665139091 0.230619611929073
0.512147152245985 0.262261523611467 0.229321679496020
0.529394765526624 0.268952587875098 0.227077492292262
0.355754316348002 0.282298555815336 0.245192191051736
0.444632797565572 0.294662969906258 0.227580434578535
0.468630932040668 0.286771703652590 0.229030428393496
0.494645652833837 0.286935796389993 0.227624474323440
0.516596804800962 0.290452144896179 0.226967833152506
0.528901055835509 0.294508060458461 0.229055379409967
0.465512993029824 0.311371085426336 0.228887307914755
0.486985480755673 0.312866373628109 0.230462437408390
0.513436404351919 0.311629560446144 0.229288703300802
0.527823921858613 0.309450390208369 0.233163205293270
0.345123040297982 0.336175508080445 0.225262543714480
0.434839815136823 0.341815963152818 0.233127866686897
0.464058681327768 0.336139258902483 0.230635196471083
0.486967798107678 0.338785146412150 0.232563524157080
0.512068601131649 0.336990032774013 0.232443019449361
0.534241226270538 0.333229807818106 0.228222948006437
0.550448892993619 0.346501802147552 0.225113855399451
0.321350192303733 0.370451446591570 0.239064247477708
0.399790960747070 0.366130319243879 0.232680283921046
0.418197784501193 0.365926107826573 0.234222431154676
0.438449292202221 0.361950041384224 0.233507499661038
0.463918996285930 0.361496713582652 0.237360801583748
0.488697872967076 0.361753192767636 0.238367875529355
0.513263306168982 0.359884839104321 0.231276837403654
0.535763367665795 0.359748766952644 0.229958057884210
0.397322910391086 0.398246506186592 0.242814980834521
0.414295997821772 0.387913715233108 0.237433092825301
0.436569740660228 0.385498040571385 0.238431656822205
0.461381690379326 0.384891873982141 0.241982600182182
0.487217895824412 0.385161501596909 0.242256015748833
0.511879939413696 0.386608498407826 0.235408630358857
0.530754551552443 0.386834988553125 0.235767791069904
0.298612083781313 0.423566047240503 0.226679476275239
0.300604026491704 0.406310780910404 0.240272376709511
0.369862580252824 0.408822849265928 0.229142056725877
0.389085699791903 0.414624547588629 0.234524970977111
0.411602676035559 0.411576490544953 0.237258168446555
0.435137851906970 0.408771931986059 0.243686607657109
0.459693081023963 0.406387585661335 0.245957054973285
0.485709914963648 0.410041451366138 0.244286892851125
0.514567574119172 0.411142298407968 0.238258664691008
0.537432994257476 0.411048509394254 0.230465841848990
0.274813565677528 0.442193995150113 0.241091606150031
0.286653699596011 0.432881332837286 0.234027135838022
0.345167317175387 0.434111290702023 0.225151638940482
0.366831254344380 0.441493447304198 0.235957708349803
0.385970346154999 0.436200353870911 0.238711920997903
0.406353704205244 0.427559965695861 0.247702145923328
0.438264587880355 0.430926423387928 0.248124044394264
0.458013736898826 0.426096660811164 0.245784809803578
0.494213476476307 0.436173132761549 0.247351544245296
0.513571302836685 0.437970185407835 0.241332127849035
0.527614025874562 0.440591828891849 0.234087965611043
0.264970446121571 0.457867045273787 0.239290296938562
0.323947694595909 0.464609970698308 0.228062380090999
0.341995571348389 0.466759463145138 0.232633039982835
0.359742383401264 0.458129612253466 0.240166994984368
0.381847414413276 0.458053029001779 0.237969281122471
0.488216968475964 0.459202432265892 0.247852970776307
0.513921422651570 0.459556189434760 0.241318682735440
0.528897118190211 0.461886472494645 0.229067672782011
0.560411881368288 0.470006785382915 0.226255327640487
0.250647925530914 0.479116710649065 0.234641738981061
0.295644929812281 0.490781692601802 0.234065648945515
0.311910093812894 0.491668489698525 0.230879487798995
0.336248761107362 0.489434088496161 0.237953780755155
0.357049902757809 0.482318300408892 0.242950552599333
0.518970071201774 0.489054713370708 0.242058357780433
0.530461923251416 0.485208025694108 0.228061119525632
0.237159220954877 0.506082719506949 0.226218360099816
0.298002782790749 0.509041152733535 0.229464921411390
0.313844577954511 0.509397165527847 0.235454727702944
0.333573594335023 0.507728531966211 0.239541330069277
0.518478426230788 0.509972929190640 0.241729622051486
0.536654042254092 0.515979363440826 0.228917393481457
0.315247183607046 0.020251639237966 0.259677812878440
0.335614617233730 0.015595108812073 0.256113825936511
0.314768012271935 0.038384219452667 0.260576615182093
0.314024147481077 0.061626722358794 0.262384829634883
0.335210342257345 0.070563412210890 0.256299776212455
0.313171936092394 0.084759484232766 0.261451831850945
0.311271225479045 0.109178000090349 0.263905762313848
0.461888020574229 0.122437942645644 0.250726391105131
0.313941353400440 0.138290540888706 0.263416928933660
0.444021736145346 0.143503769433642 0.253954742297114
0.464969849107528 0.137859185451273 0.253696238403202
0.486295647073782 0.138335078922390 0.255350218445683
0.509026210223278 0.141614582013928 0.251432190366602
0.320239214811676 0.161991619532410 0.265539627782220
0.441755053984141 0.164785960876463 0.257067491688286
0.462413108969178 0.163609937924204 0.255026305859540
0.488275638845397 0.161779951312434 0.256493484073748
0.508228092756929 0.164084342943224 0.256206183075619
0.334474827669440 0.188271003469847 0.259405063665324
0.446815334343110 0.183450527544098 0.256357236667855
0.461189725613128 0.183119507269257 0.259601951581745
0.485331346418681 0.182066905878694 0.257442510373308
0.505326716498973 0.182234772410957 0.255899759065427
0.342640662562982 0.203876955154554 0.257405808794484
0.484765524283728 0.204535137083122 0.251217687116613
0.349044086220364 0.273835460880942 0.273369480707781
0.344873162338593 0.308918397147957 0.258609842370941
0.324204981795072 0.345893841006873 0.270577222041732
0.334913563879248 0.325662026523808 0.268394829639237
0.320678660230624 0.357006170189501 0.263713963777436
0.461200910124317 0.369851984590690 0.253510386898327
0.309177190282468 0.383328128398483 0.258368719613445
0.399985324294034 0.399471053140897 0.252833715528909
0.405183716432830 0.399498731737163 0.252557628755392
0.440290624284910 0.395464544297955 0.255338583964702
0.462088850852156 0.395119460482410 0.253349191675033
0.484972626420060 0.392041214648910 0.255581372065845
0.288016984425904 0.412183660058191 0.272560920192644
0.414554034435846 0.417869836747203 0.256003928426216
0.438595294554272 0.413667443537612 0.256257934213473
0.463278674380279 0.415379785934890 0.257039290625655
0.488328346318946 0.414992736947331 0.254614997515924
0.503491576519508 0.419965243861228 0.253195862072505
0.274085650252427 0.433504794634134 0.266616791533265
0.362003328908266 0.443339978518508 0.251216392396616
0.394600310169695 0.441437806461626 0.258651128861877
0.412375440825243 0.437382516155947 0.260720453591552
0.436777573396665 0.438896749814051 0.262965146919867
0.462847190314096 0.437894862371111 0.261787023632260
0.485024742552786 0.439512682130387 0.257552424901610
0.501787521557201 0.430000003102462 0.254904168100310
0.242671737305456 0.468885956738359 0.269858417593885
0.363368042819330 0.466391106888198 0.260034525543113
0.385652017018437 0.462556649186479 0.264747001931962
0.411204035963484 0.461851741626491 0.271389170375492
0.437849727916744 0.457212021581495 0.272005026952871
0.464700506635992 0.461419749053902 0.268408700380513
0.486061017717292 0.462635494302777 0.262737154744161
0.504045061852299 0.467075541691975 0.254032887710589
0.232881716238456 0.489621486124923 0.268138875120080
0.345915318203448 0.489683202599697 0.260841381702235
0.363089317491322 0.488509930763465 0.268069026422210
0.383165768078890 0.485624359081178 0.268344960765472
0.463716935302253 0.490277693535150 0.263940812660945
0.490833642028609 0.484867805266423 0.265727298070384
0.507011148690074 0.484159557073791 0.258855707375639
0.342331906511397 0.507764395384460 0.261104649758011
0.360578075836433 0.506448269093793 0.267894875416577
0.379027262535469 0.505743082011934 0.268995898691971
0.495200700821997 0.505967565308038 0.268616440910777
0.505677105762840 0.504227564460448 0.259633675423151
0.069882181612526 0.008558442707717 0.282428624196325
0.081082920112673 0.010231835736829 0.285813431779093
0.294375281086225 0.008882466061663 0.288893058499721
0.305498979827974 0.011749166984197 0.284988487184202
0.293303383162432 0.037432008534185 0.293537772303720
0.304366546432656 0.035832506122442 0.282457646632995
0.298645663181102 0.062204421252766 0.292444626416548
0.298574969256204 0.082597870719618 0.292681021049464
0.303439380338776 0.128455551656403 0.293804220078147
0.341461882547597 0.216379835632411 0.283752225044432
0.346927105473869 0.239557942336192 0.282172160983343
0.344496352135875 0.266495523049812 0.292491063405384
0.338160185554087 0.291400439832386 0.297588750975376
0.334060589804488 0.307206330937447 0.293441053341208
0.327734949301399 0.334816359240122 0.277130512430494
0.290248176534399 0.391150858056404 0.295817784650385
0.414599425286425 0.447459638323589 0.276685236461283
0.442724136792259 0.434716988652648 0.276318657035397
0.452937979641518 0.437269426543390 0.276305456261039
0.393175977660295 0.465273918310090 0.277308879096568
0.413131419640601 0.463480382868418 0.279616289546190
0.435179544408072 0.465305045003749 0.284695249067061
0.457238193107046 0.463676499365020 0.279488401872876
0.223075856158575 0.491702612172818 0.288910473763342
0.234272612549359 0.477021097948571 0.284454886825303
0.363888539167404 0.489082085709471 0.280660618724492
0.389111671605740 0.488055968280418 0.285126796614768
0.414076793433276 0.486030648873747 0.289067182628339
0.439434341871514 0.486555517862740 0.287476717652649
0.462594943243339 0.487149879608162 0.286729909268321
0.485616957729391 0.490726696776275 0.278201536487918
0.220306717444455 0.503451909864449 0.278552003049849
0.387796703950653 0.505808581324208 0.290308028774174
0.413069824372647 0.504111773856390 0.295706490826481
0.430772819189968 0.504638162512068 0.293624497410022
0.463972794638531 0.504399215571520 0.287598798607275
0.480827184884102 0.504756350988381 0.287006533164937
0.062164784981279 0.016119553794099 0.312953906986274
0.086678680460959 0.013963443054949 0.311281103332647
0.271507353536456 0.008727721383494 0.321850575730439
0.286301071113907 0.013829912125864 0.313470877675875
0.300697395996740 0.010075288865828 0.305390478792394
0.065921369858469 0.029633202418710 0.315340649187726
0.079242606713890 0.029308856213129 0.319193049988986
0.282734987877771 0.039329130311157 0.314958656930364
0.286030415331253 0.060975330058733 0.312688302148786
0.290687020186880 0.084458521541527 0.309680422285718
0.290906188641625 0.112152244860282 0.317514875400243
0.298556847233523 0.136613959189951 0.314702378752462
0.305680216855780 0.157130502752888 0.313181036966040
0.317092789525949 0.181625409136144 0.322193756295770
0.329038415257839 0.202810305712048 0.314592705802652
0.339320740594693 0.258866484203111 0.314111398551939
0.332805970123498 0.283611994777666 0.320133256144277
0.293927040978757 0.369637011547060 0.323649953677714
0.306114892993526 0.356910253851951 0.304044138885976
0.273279992945038 0.411608700370002 0.314184895927809
0.278908893665649 0.401752878884591 0.311886971680877
0.253827754160866 0.437571704318484 0.310555837067007
0.230664498876630 0.456182183382157 0.322900748220389
0.220768102864275 0.476678401666869 0.321779719466822
0.390178366107874 0.490834486452647 0.303512556664297
0.403289228531960 0.499995292435581 0.301963027733487
0.434795437782107 0.498367590551090 0.306053163134982
0.464620430453468 0.489964062458875 0.300801845115481
0.390690779528806 0.500072944905526 0.301421417319176
0.413177646963365 0.504942675724127 0.303063918536204
0.442135796821494 0.504013382848706 0.309234072938144
0.042472135841114 0.012954617595283 0.338986140752647
0.052364682185537 0.023582640668526 0.326430419331981
0.093971132071493 0.016487663135547 0.335534615153621
0.112834260775495 0.012492609805258 0.337760601779415
0.133456186727871 0.009199291282732 0.340814048193759
0.155893749099027 0.008598792852613 0.343936437601799
0.221675049507893 0.013365961861828 0.347742756604167
0.239179285518295 0.011978637478912 0.343978482761968
0.260861997093586 0.012957833559181 0.338270336065546
0.046889110824232 0.032542014706477 0.340790358473919
0.064643300482337 0.040125236861774 0.338370086739286
0.086238933902363 0.034784841099488 0.340895055676676
0.109701518590396 0.032738484892605 0.343020587941670
0.154588698005892 0.047294398678222 0.346176983415869
0.242288112321134 0.033771926961132 0.346071061882535
0.263591562795718 0.037378910182095 0.338139218723897
0.280007761505223 0.048806733752396 0.328963092636450
0.261798571741556 0.060504599010161 0.341927017021967
0.277408698892781 0.064023179753807 0.329126279383038
0.268550105897583 0.089113880590171 0.343387980276478
0.281363555352811 0.094056810567860 0.333962155116689
0.269554688219241 0.112780794049754 0.343937068448646
0.280756248057593 0.114683951366295 0.338168162305966
0.289028617050656 0.136991195994244 0.339924393765183
0.293272171138555 0.156090423477862 0.348133313064970
0.305871542824670 0.169484865908036 0.341116105493175
0.315707210132640 0.189662995136648 0.342342063078949
0.324013200514301 0.205567691332542 0.335785567326705
0.328530328661344 0.218019668751185 0.338074171541675
0.336653180631921 0.247417200180268 0.325166014691971
0.336263918731858 0.252302627205256 0.326992153330737
0.321224788125051 0.295529442364055 0.347540495271359
0.325813863361988 0.275011959882501 0.349559082571263
0.315284613913601 0.316690114151493 0.340590502403317
0.306520742151815 0.337715495739935 0.334796518683779
0.260194150594134 0.415977630614316 0.337899782937788
0.241275142878561 0.442173157797905 0.332125809961742
0.223244490052405 0.464864922311486 0.333435458170379
0.204003446872204 0.501100634157498 0.328712036355738
0.033305498701289 0.010835843900727 0.357727690725475
0.141806481914359 0.014545841736593 0.351947857405806
0.163456462282099 0.011599041919946 0.357250136560689
0.187227315377159 0.010868420291005 0.362079526621022
0.211828465293373 0.009558771047070 0.360327470379369
0.233718212925363 0.011103515555027 0.359244243361161
0.259327171483868 0.021394941694080 0.352668040042482
0.039119152124218 0.037204930036336 0.360202324253299
0.059873715059894 0.044594679203287 0.353862219832953
0.090000698178484 0.043316742440060 0.355428309981015
0.116110421592569 0.040406737800644 0.358650635401117
0.136878769937478 0.036103183578595 0.360583117317611
0.162039905989317 0.035297179492926 0.365335782577245
0.187445625871290 0.035021605888504 0.367836012990881
0.212393190153355 0.037711259272538 0.367565302948547
0.237711711622174 0.035963380941078 0.359895471967847
0.256906117185663 0.037897616895197 0.352190338293035
0.048131894191805 0.050109291694671 0.371506190669592
0.064255158139706 0.055164373277436 0.366813872081970
0.089849901955127 0.057866832245341 0.365122477121492
0.114642847616767 0.055997452609734 0.365785945139532
0.136712635210103 0.055291060937733 0.370185413997851
0.165707915698142 0.057192609306613 0.371456698613238
0.190785850788412 0.057652612255981 0.369389486055314
0.215270779153014 0.061040330668371 0.368686405475592
0.240248006881806 0.062299198900152 0.363750028634382
0.258738199637326 0.070548641617618 0.355197099447473
0.107976580995129 0.075052730031118 0.374943469109150
0.193037996950811 0.080550677642579 0.370292322945031
0.215785067349121 0.081038576009886 0.372733959224421
0.239659866765226 0.083835390085017 0.365470326456551
0.259089759851048 0.086394872075530 0.358128077191938
0.224674550471641 0.100622809088235 0.371732392483262
0.242695685899913 0.105025971826844 0.367912103575465
0.258453183431222 0.111812941531240 0.360480300372087
0.264741388945070 0.130400780985015 0.369829599331535
0.279046443877554 0.140847152399705 0.363506267830429
0.288074758198026 0.162351023810999 0.365970264748923
0.305126383500346 0.185711948636137 0.367428327162435
0.316290750948584 0.209626442804771 0.368365563282282
0.325504335682011 0.224212224326298 0.350783513977520
0.320320604204358 0.226829785570398 0.372609339690896
0.293822436459089 0.338631366640516 0.367314364377120
0.268611492499889 0.390677301431970 0.356213723690951
0.278111607014615 0.375138145449335 0.358880274376532
0.246248889142781 0.419757810038310 0.365701478088121
0.235678700847541 0.436184655463557 0.356630149618097
0.163887257929680 0.469257042757631 0.372836297873207
0.189142664168270 0.469257570417725 0.372704208014800
0.212806781570894 0.460332216954043 0.364724913350436
0.169549281004590 0.494921364344568 0.370068064714754
0.185328357539860 0.491017039686546 0.367225268241271
0.204591819763689 0.481788398701157 0.356345642493149
0.025440319252115 0.013713383074106 0.383983465216527
0.195651578472272 0.019314720647308 0.377367338554254
0.210710098839712 0.021802369734928 0.377686945881083
0.032346615729804 0.044883597368131 0.381803611450255
0.147679046050281 0.049554613815386 0.377788178653145
0.163036268082930 0.044597810316098 0.376749202792575
0.187819215672619 0.040236293470627 0.378642671963077
0.211687652721872 0.046332537544214 0.380058642711693
0.230559935316550 0.041871945235193 0.379163337813083
0.043224854332044 0.059406660382433 0.388476631586903
0.063062307757244 0.065575971145129 0.386747269789566
0.083453372522419 0.070790306108930 0.384878210854933
0.111186938229059 0.068238704320247 0.381616278645726
0.137342106198851 0.066150859187067 0.381296966151274
0.161017322677399 0.067298178784495 0.381883212042785
0.184084571339837 0.064677871024104 0.381850656095780
0.210930884231445 0.064885477523026 0.380475783138290
0.230423296790365 0.060786410676033 0.381294400287374
0.073406222820090 0.078212420569680 0.395417866266740
0.088966754966312 0.079430769297449 0.393211829350398
0.113558568381464 0.082166616857056 0.390466085224074
0.138687611484157 0.085360577586813 0.393075695249997
0.162923402946396 0.087230938311903 0.393289844873290
0.188108035612807 0.088353254354425 0.387046448117716
0.210347518377175 0.089334805331106 0.384312451897333
0.230283750973130 0.089915773067941 0.378129571779366
0.169566233333109 0.103651347916378 0.392740129489195
0.186540004194512 0.109042767387121 0.395706845478876
0.214799312395775 0.112832091995258 0.391585495286081
0.234686361835347 0.113940533691517 0.385314398111617
0.240162244993368 0.132763011256087 0.390211478512490
0.260210014194062 0.140131768260164 0.383577001934975
0.268224028024904 0.160018119125860 0.388372816004336
0.280644473241991 0.171065954332604 0.388182983186790
0.268651884346281 0.178493504274321 0.399609720003451
0.292168262824652 0.185123723538558 0.389796287769137
0.300863964305782 0.192009785778800 0.390888856212589
0.308462621184094 0.209901628717688 0.388577759417471
0.316936884647326 0.240329085604300 0.386850875451061
0.284308595459721 0.254287691650454 0.397038670402099
0.315251776443223 0.265711860728493 0.385440164978867
0.292018840270401 0.289603847056170 0.396378288368443
0.308009838875805 0.285026882576950 0.392593466384054
0.295152625357706 0.317030097152906 0.388414844093877
0.304889918290814 0.306618513629648 0.380925740660298
0.062498029848079 0.349602019816918 0.399522161515947
0.083066878922405 0.349867385182202 0.397375542410059
0.239174517273866 0.334903939213170 0.396503384000133
0.284422303530264 0.333631323871290 0.396630591222043
0.048155675495043 0.370201651829481 0.395953781383103
0.061680768284811 0.365096476859815 0.396557049339271
0.078394084822337 0.350135332768859 0.395634629038501
0.243699259192807 0.360501449854284 0.393221974438105
0.267235995161173 0.364122499527964 0.391281263525509
0.279357185244172 0.353897669226718 0.385969104022642
0.039695938535601 0.383255312345901 0.396333293874314
0.059746558754002 0.390127883829622 0.397664442961994
0.086607405272786 0.386239759537570 0.398516546926699
0.262168743858991 0.385236453240423 0.384127587602746
0.023964646955236 0.411152952153456 0.391238350212213
0.035922286277183 0.408839732893853 0.394279371190981
0.060328338733964 0.413218799672192 0.396540007238892
0.086513591242275 0.405329216319303 0.396935744044974
0.103054652675248 0.405157785103549 0.398059660941388
0.239043847787612 0.408327515066913 0.393453326151565
0.252294111704732 0.402169540156593 0.383280134249447
0.022880741665056 0.430560936353032 0.396472989978722
0.037624624783368 0.433968682377695 0.394176005963851
0.059837796137136 0.437478082598180 0.393374463663297
0.095749830805106 0.435565599753805 0.396844163961375
0.113280347048309 0.435502166129433 0.397179098179334
0.198180281404496 0.435109480207005 0.399866423706349
0.211221328761657 0.436306127134936 0.394760132035802
0.225619223604701 0.431493020273188 0.389771239066388
0.023188346484323 0.460996848255478 0.395009122519941
0.038260863878874 0.460962436650795 0.395158441656937
0.059829602606263 0.458270546911071 0.394804450141718
0.090679132100200 0.465720104581188 0.397097155980247
0.118357788964309 0.468246060701836 0.397061078527576
0.140771720446399 0.466005139463631 0.395110178375676
0.162889509729534 0.465886081595888 0.388037075854132
0.186933332740582 0.463017966459700 0.385704433087708
0.203191284844743 0.460762498185227 0.385058056324741
0.024684882532660 0.487244139330783 0.387759904772429
0.033248216620684 0.482493440170438 0.392603596373384
0.066071909836668 0.481206534488733 0.394457825797398
0.077783220627507 0.490655164435270 0.398669471181826
0.115722878577960 0.482017866957047 0.397598801678677
0.137756377326404 0.484555111782269 0.397408042560883
0.165506290042093 0.483331141339685 0.386396384115697
0.184914939169064 0.483507877988679 0.383208434963590
0.021248810587106 0.062418865714877 0.416864597077345
0.034610273151607 0.063756405153624 0.405376361130459
0.055579785638329 0.071962260727222 0.408646436402189
0.087517371836648 0.072751147837384 0.400229101709724
0.022495959543428 0.080671673244320 0.423152198540201
0.042669160945088 0.079427487591457 0.418476933228821
0.063498978285879 0.086053555609596 0.415613691347855
0.086140975505366 0.089341977716054 0.409400159193521
0.109854160167733 0.092201598465357 0.407276961447157
0.135361509867184 0.093115894708493 0.403593576878981
0.160967613506100 0.093830948144232 0.403356818977168
0.177205901552687 0.097573779843104 0.403732180319469
0.208000762369279 0.092818009131151 0.400921797315442
0.073705500387177 0.101224095221426 0.418117302334686
0.092041927790291 0.105382673534541 0.418221525631081
0.114989149211066 0.107172387738426 0.418853522661509
0.138598642145189 0.111322402996900 0.414887447867276
0.160799526370669 0.112205061242587 0.410940920849814
0.186007437270184 0.114307559399034 0.408052224276517
0.204985016222520 0.114718894725127 0.404763103676381
0.142798938752327 0.130813404041258 0.423243788981383
0.165182104953260 0.132241192360998 0.420259781305993
0.188140086195392 0.135287831396595 0.416971491675438
0.213011764598151 0.136607269984864 0.411088806919250
0.235199542579374 0.143203668712578 0.405058192104685
0.171189474450379 0.152553851336980 0.423346179601826
0.185261281269596 0.155828002151776 0.424023483948517
0.215071482814868 0.155659783229404 0.419617082274488
0.238386361765345 0.161477468177615 0.415620610453192
0.257393868871207 0.164532561257067 0.404717710025008
0.222990675225411 0.180972894668591 0.423403367165330
0.240724328842510 0.178547861405844 0.422583712768552
0.263733716427156 0.186087089804509 0.416620431125786
0.283141316923035 0.190602370362765 0.408513641539895
0.267651562228396 0.203923282922221 0.420039170765430
0.287673769065036 0.210741852973918 0.412043759218734
0.302910961664922 0.218968720123601 0.408826612157913
0.242792735570001 0.231001569238776 0.424499453723797
0.264667393964542 0.246977696642348 0.416603906092287
0.291443950878371 0.235651013023244 0.417667658897759
0.304575418320837 0.237888480145115 0.408251368696987
0.267382748922899 0.261493394809709 0.421184946206880
0.286538259458496 0.262543194093344 0.415574000918924
0.303998981901554 0.260364051439451 0.409473017553500
0.078766846615662 0.290024715133026 0.423716230364371
0.102606081454903 0.286312236670865 0.423576318167288
0.264652153576334 0.285861995871563 0.418886823667444
0.287488606992326 0.286004286242461 0.414916894212497
0.304269213547748 0.285020366905089 0.403063151710561
0.040080240240592 0.317199696608455 0.421578084717228
0.065751817070745 0.315619313224852 0.418305997612214
0.086699067942418 0.313713629939120 0.419242091801528
0.108724091276387 0.308014003072176 0.421795646466939
0.133677022561820 0.313191051900216 0.419122889884801
0.202793814270284 0.321357704149222 0.423917342183519
0.242413123947329 0.314874455963764 0.420644957862535
0.265871541876677 0.314748875977262 0.414156831276818
0.282196898357622 0.308970941164985 0.414634415758169
0.022072171469999 0.338526721592343 0.415290921612129
0.036651066162980 0.337654131920107 0.412541061878610
0.061595231629792 0.337201230043493 0.411565719176353
0.087810905280806 0.337280511644768 0.415526571202181
0.109319826089002 0.339202292412065 0.419940018618638
0.141712587590122 0.337452494808963 0.423615795254936
0.218724107635226 0.339916495198759 0.420060894965921
0.243245819584152 0.338434013230982 0.415974588422095
0.263135279524705 0.338796145191911 0.415166117721761
0.021503297585101 0.363917564011626 0.413234367867723
0.036205846915304 0.361439714338976 0.410280300610980
0.063350745239418 0.364287722179603 0.404830150447512
0.087966644352893 0.363167466569584 0.409860404021881
0.111911716914365 0.361208834288559 0.416971200424801
0.131792245424397 0.358660568752599 0.420024783644891
0.155634728587944 0.363941525008838 0.418081563946240
0.214676728041098 0.362073024233322 0.419551532651869
0.236745519798843 0.363924229439885 0.412618528952609
0.257318164218059 0.361539240741638 0.410850720487229
0.020890849352930 0.388960314401463 0.406315254843229
0.035434195956898 0.390693720941388 0.402799797551736
0.063487080131551 0.388458295363708 0.405350054425570
0.087540924135699 0.388328525733163 0.407573062650451
0.112080119710188 0.389113755837842 0.414058125408070
0.137366678530822 0.390636852342548 0.419393178127165
0.168165224111342 0.391857831362216 0.421931556964257
0.193231110844193 0.388717571823148 0.421965924781123
0.214468049589112 0.389853497235456 0.416759720100486
0.236413686363591 0.386204842560794 0.412224615731982
0.252862306213041 0.384420464541473 0.402612441101273
0.041125783700384 0.412889346440689 0.402923392872413
0.063193195525218 0.414223613352696 0.407544457544301
0.087363088356664 0.413828589990294 0.409740174731305
0.112592879611854 0.413500334966564 0.412133735800784
0.137197547202498 0.414091376807525 0.418922046052981
0.162522928803993 0.414537382782246 0.418056756530302
0.188207913771185 0.411946964013966 0.416084836998025
0.211822070566244 0.414544242738726 0.411334439595237
0.230128008546668 0.410736959346247 0.404674783591575
0.022122619132368 0.445129964667667 0.400278484446843
0.038413359103263 0.440880977190377 0.403589773265435
0.068461548696347 0.439256862499128 0.409097708136780
0.086766927484010 0.438887637961367 0.410459435242959
0.111548695385180 0.439533890455021 0.407324085175602
0.135590786627271 0.438102487622073 0.412936629930267
0.161591614592966 0.437320791166745 0.410961329417788
0.187664634087859 0.438491062897565 0.407867922260827
0.205513964797691 0.440028475469933 0.400754306817481
0.037410518060758 0.462371456405892 0.404747488704952
0.062489496399572 0.465483941894241 0.411650993325654
0.087752605659644 0.463851073075906 0.408505319451290
0.111466225418463 0.462414667520850 0.408288684412861
0.133939972852509 0.462342005726069 0.407937239945528
0.164282070026233 0.457095129239173 0.407031986421038
0.185243519257321 0.457278009842726 0.409060777209566
0.040092042476582 0.483420834149662 0.410684527104382
0.062909806015015 0.484025340737091 0.406857958014360
0.085732207022965 0.482574825411332 0.411947541712744
0.111173771449659 0.483988008019725 0.407053205497159
0.139092119893826 0.483071940213767 0.405710432424982
0.155342271841966 0.481445515868323 0.404230383411822
0.018216690004304 0.072369493038429 0.431697393715361
0.026768191441676 0.070309682906040 0.426799843444086
0.018199178365733 0.087052834088214 0.444018574271689
0.035423614775097 0.086423527210263 0.436539948527925
0.057247276250520 0.092493462033897 0.430733969707314
0.085665290062522 0.099846990929200 0.432507976421392
0.107143281226196 0.095445138616095 0.425849898054120
0.067351774455615 0.111554748057152 0.442711342968158
0.086129122943470 0.113189617343739 0.434545960367159
0.108869202245906 0.119131464308339 0.432780461350511
0.128188897934197 0.118591723872525 0.432791564802067
0.157169002440883 0.115459776929744 0.426353780043586
0.088699901336555 0.134504877449474 0.443557298531470
0.113131557651602 0.138452122354436 0.439011790695424
0.137121831468591 0.138427476063907 0.434263836449200
0.159026362564487 0.138708730991579 0.432067575089176
0.185868745985058 0.142160368531737 0.430157192542653
0.201469584895396 0.140178659659710 0.429939636827999
0.094673261414601 0.158640464982409 0.445156825734774
0.115882262089449 0.161742618445759 0.444145954169509
0.139429107586630 0.163006860638452 0.442693627517312
0.162815532625369 0.161500621309653 0.439263741426998
0.187557761418911 0.163572330932859 0.437061436276236
0.211100986288448 0.165058021271636 0.431601429977736
0.230032293644835 0.165691147375197 0.425523776094573
0.087682595405788 0.198483550784362 0.446592366847757
0.114561072380293 0.188585203191923 0.445672143195904
0.139067331790046 0.189172599897494 0.444908417016809
0.161017399096785 0.187644530254250 0.445963187558950
0.189347836874073 0.184628848711000 0.442215715121509
0.213061034845432 0.188521781521355 0.441686394113446
0.236435481956933 0.188644804253299 0.433587771435750
0.257594051238866 0.193730595697924 0.429094582227385
0.079687562532580 0.213214032222967 0.449060607970986
0.117289377375474 0.212952496279244 0.441862441591644
0.136417962594751 0.211811325100002 0.446704569111260
0.164189861063940 0.217089272213887 0.446295157762981
0.186876206070097 0.213260669011178 0.445453655254257
0.211115404377202 0.211441804115667 0.442575420973274
0.238362735375001 0.212774910602939 0.440761114587196
0.261653231799707 0.214409308299686 0.433903496315341
0.284737755100379 0.220668931491923 0.427294857659191
0.071151950714857 0.246886357827015 0.446016202897068
0.088429195461373 0.241997042889171 0.445082088384520
0.111946797772596 0.240805241105746 0.445111825016318
0.139180540094671 0.241907782707332 0.445907647604151
