# This PCD file was generated using the MATLAB® pcwrite function
# from Computer Vision System Toolbox®.
# .PCD v.7 - Point Cloud Data file format
VERSION .7
FIELDS x y z
SIZE 8 8 8
TYPE F F F
COUNT 1 1 1
WIDTH 883
HEIGHT 1
VIEWPOINT 0 0 0 1 0 0 0
POINTS 883
DATA ascii
0.556575018090682 0.229268412235406 0.075266452858957
0.553320158727920 0.228361945425833 0.067220588295339
0.551157392233723 0.226857213833986 0.054148166305577
0.546806568815641 0.226523452163235 0.051123837931703
0.539327345875795 0.227811531030971 0.062553851426085
0.535891329643973 0.227012258563588 0.055444340018552
0.531094317604861 0.226903764735081 0.054619255142870
0.525757940284005 0.227070114398688 0.055976820698427
0.519997640685627 0.227487489312061 0.059539889050746
0.514922479476516 0.227546703982703 0.059959030107822
0.511337679141225 0.226792924730599 0.053465369456426
0.505531832183337 0.227245726803094 0.057337943057270
0.498063119979168 0.228495081991832 0.068418810431882
0.492323205449361 0.228849668111027 0.071647458252400
0.488495018033742 0.228263925037991 0.066401531158866
0.483651671531020 0.228214894777571 0.065866094057780
0.480152930910734 0.227424586821559 0.059045284965511
0.473172040122545 0.228447448905437 0.067910916771819
0.470696582564226 0.227156805839023 0.056699766617635
0.462079049774401 0.228975891840677 0.072774022288931
0.457201414226032 0.228925434824294 0.072218270270546
0.452993601665392 0.228553557654032 0.068843265905596
0.449584678900960 0.227726823628057 0.061696185882925
0.444814050887172 0.227615366932163 0.060828272141705
0.439369494165017 0.227850043169362 0.062770122672871
0.436046472567348 0.227012579986105 0.055301428131199
0.428256391756510 0.228375319720028 0.067589543158189
0.417968887433825 0.231001569238776 0.090512661166179
0.416551783676655 0.229235590221733 0.074895071532345
0.413151424653790 0.228444526711401 0.068057473754921
0.406457629224261 0.229284523745772 0.075303605502498
0.398880803996216 0.230527119065204 0.086305643745243
0.394826785141056 0.230082006727841 0.082275526059504
0.390044659903027 0.229968325998491 0.081377165801259
0.386260624770332 0.229354627953253 0.076088129038318
0.377950821796495 0.230978130957377 0.090205252901964
0.370067110446228 0.232361721944718 0.102441101038926
0.365908995953084 0.231950951432639 0.098704154997117
0.359457633780361 0.232620106570315 0.104666880305749
0.353548906188302 0.233065076618306 0.108438176216632
0.342394091231435 0.235979298820850 0.134097152364359
0.317912688000803 0.245273336476336 0.215737925541991
0.284333261901910 0.258866782518635 0.334868709815193
0.278178987733388 0.259316811696855 0.338905404810420
0.275462931337521 0.258190203623632 0.328879535963049
0.271747593342455 0.257500233656929 0.322913764897758
0.267177193374568 0.257227750682723 0.320375266561238
0.259385730953341 0.258460903037804 0.331280479240077
0.253553641745011 0.258767623836243 0.334056219301682
0.249269209813740 0.258362371730099 0.330586319164746
0.248203352368686 0.256451459036938 0.313667528290298
0.243322096741634 0.256330994640352 0.312693881458546
0.236649981966245 0.257028511816162 0.318893684699313
0.235448722297773 0.255199470343300 0.302926455265871
0.227543626633162 0.256491905194342 0.314111929230282
0.223787613851952 0.255836585637190 0.308438400819489
0.219759078269163 0.255350020265464 0.304015050492899
0.215084862683752 0.255121424476785 0.302083220185366
0.211188288097485 0.254537064371605 0.297028721872506
0.203174623362719 0.255863241203676 0.308504324650027
0.200167143601356 0.254887867489542 0.300019380282556
0.197324834373226 0.253867483325911 0.290906980181830
0.191486116750501 0.254171359990322 0.293641019680147
0.187479332520858 0.253658002232036 0.289206170067275
0.183398294606434 0.253206107548104 0.285078303014837
0.179921310400237 0.252417499456882 0.278454556295236
0.171425891376561 0.253954790645668 0.291777101693635
0.168140384456336 0.253121251488546 0.284528406336038
0.162164651495072 0.253521193278071 0.287869663594144
0.157536458143642 0.253265184276324 0.285916858141554
0.152670803801155 0.253167528739101 0.284890046053318
0.143173423955608 0.255102620630256 0.301927959036109
0.138699051679864 0.254800856968182 0.299339197637802
0.133634846277650 0.254772970205994 0.298918154592442
0.130480765650548 0.253903635303289 0.291349973512044
0.123628695513491 0.254666363147393 0.298099782320659
0.119452260202746 0.254221648174216 0.294249563779509
0.112670819129090 0.254974260297329 0.300676860306347
0.103580695687429 0.256666855229662 0.315810863231852
0.099267205602409 0.256318869298399 0.312576526830501
0.092788858082669 0.256902389511082 0.317748351031921
0.082438172341337 0.259151111104929 0.337526507231511
0.077861232896351 0.264084124796781 0.335272048748786
0.087212374443656 0.262275947530263 0.319222949317957
0.095761559429941 0.260771926047514 0.306289412854546
0.100558195587187 0.260908174906851 0.307658684156433
0.104757540994482 0.261345665277272 0.311190419829145
0.112985900605292 0.259983472849059 0.299492450270472
0.119605422655971 0.259323858621938 0.293684824019882
0.123751279625959 0.259770740142598 0.297528079266545
0.127981233255859 0.260155801080411 0.301061200973898
0.130419250090298 0.261351767305552 0.311432274273080
0.139332517903109 0.259692288196651 0.296905399510326
0.143375925261900 0.260147841645889 0.301047315242850
0.149078466730249 0.259915954889337 0.298967873096959
0.153842140019188 0.260101848690658 0.300295515770308
0.164142529804645 0.257771284292885 0.280141760745431
0.169164207993468 0.257823704819581 0.280535898948502
0.174264755677308 0.257814219454650 0.280618576834108
0.177030895707375 0.258903182634285 0.290052476125517
0.180877421044929 0.259491354938837 0.295115288180713
0.185169206558605 0.259864530899120 0.298299474427984
0.191639270851133 0.259273067851272 0.293075063908271
0.193493806030859 0.260765114176123 0.306249435415048
0.201255764559746 0.259538708861651 0.295712915122933
0.206672240165375 0.259410913382511 0.294526068274550
0.211698849424004 0.259461746995825 0.294895910372410
0.216368846653213 0.259691728378653 0.296829346917531
0.218645787747144 0.261004855728479 0.308437920824847
0.222060585971895 0.261806899300874 0.315355495447965
0.229665786666352 0.260676461812611 0.305421181474121
0.234036923388748 0.261023027750528 0.308597032693920
0.235655370937776 0.262684509137812 0.323008770305703
0.239931728964506 0.263092484321512 0.326484920214194
0.244165989783423 0.263510467816939 0.330280616605777
0.247339653721634 0.264455963239598 0.338444568766157
0.256437990703791 0.262607241426304 0.322238874136514
0.260795215065161 0.262978753716889 0.325392420857069
0.265065945707597 0.263396545314341 0.329184118774871
0.267772442151064 0.264556289183304 0.339209500945817
0.271722759969367 0.265116889232877 0.344242324187960
0.276908525436448 0.265104291072307 0.344277464497559
0.287030086378889 0.262751469056257 0.323670148212782
0.324108442371906 0.247417200180268 0.189846100198005
0.344733315384540 0.239906662465636 0.124479991013223
0.353476017223946 0.238122110585116 0.108825260163040
0.361681991187373 0.236587939761772 0.095353359980689
0.367728810878732 0.236093530417840 0.090948480987079
0.372399072031979 0.236255601039870 0.092493703925745
0.378291177063197 0.235832377103944 0.088707391889515
0.385132539039670 0.234942253710837 0.080848186555670
0.391115922237026 0.234432290179761 0.076752140152121
0.397386289330849 0.233828946454427 0.071393819493916
0.399176036708428 0.235414922761098 0.085126064296272
0.405880165411817 0.234570414779445 0.077885599409990
0.412865612322979 0.233607108520686 0.069384545227741
0.417713671703927 0.233659292884746 0.069959868982205
0.422778332671809 0.233628764691654 0.069589634487159
0.431182702198822 0.231920619704159 0.054811994512142
0.436381046204076 0.231817570599030 0.053807231484531
0.439990114348323 0.232541569172625 0.060018603733601
0.443933123673774 0.233060253000843 0.064658892301069
0.450131546146581 0.232453486681188 0.059257537266282
0.453255149371870 0.233403643509316 0.067660826897848
0.458526329785256 0.233238527284380 0.066331988899635
0.465128395293274 0.232451933997218 0.059362928212176
0.469545758129709 0.232743008761398 0.061787679584599
0.473602754819947 0.233225292445914 0.066105960920304
0.480933788004956 0.232041711664275 0.055669180104693
0.483671144925827 0.233170418608944 0.065618934428884
0.487386950253536 0.233832198668066 0.071499548442823
0.493935529222034 0.233068703304612 0.064500086044915
0.499502836399082 0.232758182395901 0.061896204845449
0.504056833010529 0.232987648250880 0.064002780669967
0.506577961877293 0.234285731025293 0.075203411059959
0.513800472472272 0.233110596800313 0.065055340930379
0.517464270396382 0.233807630595458 0.071236741041423
0.521417890651610 0.234349088568859 0.075833003510118
0.529776587599740 0.232597456837828 0.060657222159726
0.535669283539705 0.232105126767881 0.056459583487696
0.539136114582969 0.232934832789714 0.063570867104138
0.545432108510797 0.232225855953618 0.057481433480147
0.550501928987685 0.232190259133918 0.057041375403943
0.553034307125090 0.233498933814075 0.068549726877158
0.559687980685412 0.232634534607186 0.060880440852533
0.563279689238405 0.233366108242603 0.067351143208429
0.566268006343109 0.234458817849849 0.076974718054060
0.573550355482174 0.233232751819622 0.066145405749271
0.577984241324808 0.233531714268592 0.068841541761058
0.584584175674264 0.232665424941849 0.061148157966818
0.590011637265086 0.232423025164804 0.059120111870251
0.595436339344433 0.232180371453859 0.057088675554248
0.603099790688061 0.230736169919605 0.044353287147243
0.608184144539766 0.230698405257547 0.043884223408210
0.615759140028114 0.229264179738606 0.031456161296502
0.621619416412350 0.228767671042909 0.027205686745183
0.626069484047057 0.229065155507682 0.029881384207880
0.631728034298008 0.228701481903772 0.026565435041761
0.638484857527023 0.227698772447108 0.017896229727955
0.643420545998999 0.227706485986896 0.018039114224429
0.648420455095846 0.227702950143018 0.017861270310259
0.650941172615587 0.229082757082864 0.029971824871755
0.657639203081745 0.233065636085559 0.021351816206635
0.652509435979007 0.233142300785223 0.022164951633114
0.647055871869660 0.233425410156031 0.024546574571960
0.640564474878671 0.234264217446576 0.031965629417043
0.636563556776124 0.233736309804633 0.027090890937157
0.632337347972812 0.233303708253246 0.023484299444279
0.628144484649745 0.232896418983036 0.019877520537493
0.620692048151937 0.234241943309480 0.031683383859290
0.616271386675440 0.233942784607555 0.029009933038957
0.609683790935832 0.234815997269672 0.036720588182545
0.602589378670978 0.236004563110564 0.046945379260994
0.596877584120891 0.236393740588766 0.050234379903499
0.591058807179003 0.236855542560544 0.054153693113949
0.585597223708167 0.237110828320267 0.056504631412859
0.575904611610715 0.239650484622508 0.078658318854854
0.576876849912715 0.236437179625819 0.050489761270065
0.572655102968803 0.236002468327530 0.046853240121658
0.567929421353225 0.235883235252660 0.045731545873106
0.559672550551723 0.237648710706231 0.060946445749191
0.554939271131828 0.237478518061998 0.059823527499653
0.549673230354065 0.237611546543391 0.060881486164493
0.543582641480268 0.238216203859539 0.066031065558803
0.540004121269808 0.237479749771617 0.059552553504157
0.533195292636694 0.238420622853797 0.067834331610682
0.529280078597206 0.237865057075547 0.062921805356894
0.523145000721644 0.238468225426222 0.068051876664159
0.519027976269512 0.237995808920860 0.064079733954456
0.513643984351689 0.238200028321475 0.065748908147728
0.509462701892847 0.237763556833874 0.062086150233458
0.503453216086969 0.238293201110643 0.066574346732899
0.499443482182517 0.237784377924481 0.062284157310625
0.492273418678592 0.238929225941022 0.072105543114025
0.489531797377547 0.237756806702187 0.061834636338760
0.486271004112119 0.236823971870605 0.054084539176886
0.478736483550641 0.238148788422520 0.065463055093463
0.474285091742542 0.237881174924941 0.063034865315254
0.469171171593878 0.237913405288742 0.063424549845611
0.463550152297029 0.238260772321858 0.066327652112362
0.457611921661108 0.238726906972364 0.070478879206044
0.452166099052969 0.238939571023636 0.072431649118728
0.449395654427356 0.237802842578037 0.062461069116552
0.446052695847832 0.236992316856600 0.055321804954985
0.440007940830474 0.237493320338598 0.059768586564865
0.435165964151088 0.237441658546262 0.059205858253434
0.429646601880393 0.237689470766140 0.061457567330911
0.419969633886127 0.240058479055824 0.081877471670639
0.415114727975591 0.239955390373030 0.081309462020950
0.411867669920373 0.239070988099322 0.073518405891682
0.407423312048783 0.238801037830522 0.071055388730747
0.400315568652993 0.239842415849620 0.080183365707918
0.396483318487935 0.239283538869746 0.075215457418294
0.391192081511839 0.239421490541834 0.076509300446646
0.385281973508294 0.239872882435043 0.080295073238165
0.378925734936170 0.240515270532302 0.085957534251228
0.371339056095253 0.241796586474940 0.096937529240013
0.367183312090740 0.241355448571264 0.093204837646231
0.359949605385490 0.242430159093862 0.102614110456984
0.353521695738108 0.243132860521059 0.108574510079511
0.345642251801488 0.244494814943663 0.120469509108377
0.324497704271969 0.252302627205256 0.188019961559239
0.285476941557021 0.268666203922000 0.329962891435532
0.275188490198342 0.271142061112886 0.351517718501298
0.271651394554520 0.270335102818998 0.344608277851255
0.269884622022302 0.268725584829116 0.330512603528845
0.266729542702515 0.267775430608136 0.322364029895181
0.261100273159709 0.268003900586771 0.324197449205495
0.256560925677483 0.267701895665909 0.321662987165478
0.250534275859147 0.268146959772559 0.325376377234026
0.246072218925555 0.267808558070760 0.322524145971662
0.242605601272518 0.267001748224173 0.315610157478757
0.235319058531004 0.268021935933746 0.324303404395846
0.234727372295185 0.265882837079692 0.305840350411371
0.228511986187915 0.266372268824215 0.310159652059991
0.224449100264007 0.265879332617472 0.305732849097118
0.221502684148719 0.264856721219046 0.296944761712925
0.215825312339315 0.265093509998472 0.299070414598655
0.211696851588396 0.264636278800961 0.294949940316945
0.206747654073210 0.264549203984014 0.294268204499089
0.200053314225155 0.265253020710220 0.300438894235385
0.197522310205863 0.264076288378668 0.290080392089753
0.191918376631134 0.264275996472519 0.291878751007673
0.186530061663711 0.264404406791160 0.293062822838515
0.182808671624606 0.263766570327732 0.287370071302258
0.178256759077996 0.263472659913814 0.285116824667142
0.173548834131485 0.263302491100798 0.283478343827479
0.168050567141135 0.263465616230748 0.284956260375296
0.161122063953207 0.264301387227782 0.292035440822231
0.151004746209620 0.266522010417591 0.311575676899434
0.149041704786609 0.265092767333971 0.299015140346640
0.145845084602831 0.264212898833130 0.291447266424942
0.137164863244432 0.265837970118858 0.305366157588204
0.134262156832122 0.264813681061162 0.296541738002067
0.131399397843939 0.263789945588267 0.287723371134477
0.125001599359575 0.264346054710987 0.292598725416152
0.119677860562362 0.264435576598456 0.293430865187757
0.111652333870565 0.265734911908626 0.304517842995905
0.103239206303726 0.267187550567276 0.317163876450506
0.098030518469304 0.267203741727319 0.317354490419564
0.095345012837926 0.266133567683523 0.307897674883597
0.084622610143219 0.268589367924017 0.329235858998477
0.078690344445921 0.274102267911125 0.332271491213649
0.086816047612090 0.272787306946329 0.320891476648995
0.093381693584133 0.272157463599740 0.315413960646018
0.097615430224310 0.272548377012227 0.318961576871970
0.103767409529068 0.272098405662207 0.315031633362584
0.109814063875138 0.271721248067026 0.311733111890048
0.117943818327424 0.270393377362805 0.300006234667645
0.122446822277994 0.270649538620789 0.302617762758739
0.129623507257444 0.269728605568505 0.294625063226151
0.136901567819629 0.268771529135134 0.286322396915827
0.138198514250276 0.270498239724605 0.301374620113510
0.144880291790126 0.269819101464952 0.295234647900933
0.150151110881304 0.269738498760819 0.294708413184861
0.153463828314540 0.270587813998181 0.301969261667893
0.157833371815404 0.270956167858386 0.304851866483761
0.166589853799231 0.269284115760445 0.290609153566680
0.172043218296383 0.269156702711414 0.289450164289831
0.176330153737370 0.269508449580856 0.292641197841946
0.181546331625789 0.269489122445896 0.292411255404128
0.186024916650179 0.269794710359886 0.294977481104172
0.192650141059721 0.269097696344674 0.289132891219454
0.196269435158949 0.269800933542114 0.295123445751056
0.199224109446492 0.270804287454687 0.303928878736583
0.206636916489408 0.269759486333059 0.294624328013223
0.209475525336791 0.270835556224188 0.304056321733593
0.215978583522409 0.270198926328353 0.298496583028831
0.218226814647436 0.271527479690668 0.310097404925167
0.225758424244931 0.270419995270092 0.300480255110743
0.230280080688640 0.270724606610108 0.303030185858017
0.231781572043668 0.272415380042204 0.317749077477155
0.237921972220717 0.271959082378038 0.313739751638773
0.240361192748090 0.273241320862053 0.324708059076309
0.244061908500496 0.273918147897150 0.330688994918878
0.249973152139887 0.273569970744842 0.327607801222709
0.255122020204574 0.273583981096762 0.327646518102962
0.261102664204753 0.273198963626278 0.324245667284891
0.263304650195548 0.274600499644994 0.336466920843719
0.268200206315598 0.274722371870264 0.337429256590299
0.271398972863288 0.275652515370046 0.345586517425931
0.276286315923639 0.275811284199630 0.346869065891856
0.287799484109167 0.272740562307855 0.320319283086226
0.321440882409134 0.258866484203111 0.200900716338037
0.344899201925666 0.249887923036090 0.123663071364823
0.353448859296506 0.248191288585954 0.108954621498938
0.359062311872765 0.247909166103172 0.106432386712127
0.365485366717457 0.247202072165616 0.100468456432314
0.372196122711756 0.246374709569710 0.093245552852543
0.378530492857406 0.245728463234685 0.087582426364444
0.385651532852602 0.244694194839570 0.078799749400144
0.392336362245719 0.243865518766000 0.071562458309034
0.395142332059762 0.244961711906675 0.080911263942608
0.396094229039285 0.246977696642348 0.098408208797689
0.408735311022016 0.243143627916482 0.065489413875532
0.413509506835783 0.243258315706202 0.066377156537863
0.417229288389304 0.243893153551902 0.071968760906400
0.422974820945132 0.243535419500117 0.068785240313528
0.430083560832802 0.242461444328790 0.059648716235873
0.436607182994828 0.241703060518554 0.053010476107935
0.440658288840466 0.242180202125253 0.057016299749512
0.444600365912680 0.242705187079420 0.061655526823096
0.449188498440694 0.242927956605349 0.063469091121911
0.453636035293439 0.243198106050859 0.065910160542885
0.458156743131400 0.243456959012073 0.068032419624363
0.464801096096826 0.242624086720823 0.060745637472529
0.470025784373020 0.242493392722640 0.059729017971417
0.473911810393137 0.243053950764708 0.064668293172449
0.480259677281406 0.242365693603262 0.058624324497533
0.481979223769922 0.244054453291125 0.073283986245534
0.488004827210701 0.243522932835228 0.068810858786162
0.494174170942972 0.242906308902532 0.063378704569620
0.500327083379815 0.242301285738500 0.058269733606788
0.506166688804087 0.241866408261111 0.054403781101441
0.506747777593281 0.244199559501434 0.074390913420556
0.513379475448118 0.243338808824370 0.067075034630696
0.517260613955021 0.243897823950146 0.071989378610501
0.522166879105242 0.243972625871023 0.072513144106578
0.528411730845671 0.243317990672570 0.066747712762206
0.533519382378419 0.243257735253560 0.066325832504925
0.537877433666619 0.243598222140175 0.069356434254292
0.542276482345294 0.243926993532284 0.072062538560594
0.548235320697847 0.243391807580154 0.067542510880212
0.553437958524861 0.243294602700633 0.066799701242646
0.559088535782871 0.242929544487412 0.063521222714645
0.563078081637598 0.243488354355269 0.068429769077282
0.571233416342929 0.241773511924015 0.053518521455127
0.575592949311208 0.242112664167979 0.056529743224983
0.578889332783579 0.243060660580933 0.064566796274489
0.582762634705198 0.243654680986065 0.069770572450847
0.588689353174885 0.243154521738616 0.065547239261766
0.595374104051732 0.242240914410181 0.057537393470591
0.601228497395957 0.241739357215868 0.053295879467010
0.608553691005982 0.240434707978829 0.042133665499610
0.614685658157319 0.239811883761834 0.036626846669406
0.618914867225156 0.240222509447684 0.040245082247345
0.624807536752365 0.239720396323209 0.035997736169247
0.630960572932113 0.239059762006497 0.030159973473058
0.634412821525278 0.239908153001805 0.037547729747517
0.640200976446562 0.239441397082185 0.033599910147966
0.645820461975507 0.239109387623024 0.030594712905622
0.649734416152309 0.239701669403443 0.035771973127356
0.653353741765148 0.245479465012307 0.042587639137204
0.649373502317737 0.244857890487931 0.037405793745737
0.645101081333592 0.244508022558928 0.034119629564907
0.641225131409539 0.243849877600926 0.028624061016654
0.636995690051284 0.243437569391551 0.025017340995186
0.631079431108672 0.243955251120313 0.029595000838955
0.624926476753628 0.244644982372142 0.035429390873580
0.618510853277182 0.245443849068017 0.042193866864490
0.613559049286261 0.245409572532140 0.042039697293334
0.607519270224986 0.245999694500485 0.047235779969085
0.598974792460491 0.247972423424202 0.064053781664612
0.593216392249799 0.248402951030885 0.067659701130686
0.586923271442224 0.249101600711546 0.073780795586273
0.582446757821243 0.248859714296188 0.071406266260058
0.578512434595081 0.248236159328628 0.066195716868370
0.573270173857295 0.248384251823983 0.067600450124639
0.568033174152361 0.248519903525902 0.068674567847654
0.562898969741458 0.248581573550841 0.069111847808954
0.558399743469096 0.248313232560945 0.066722762496530
0.553219731203364 0.248423727920586 0.067801030703787
0.548354701899930 0.248338051674286 0.066972709800497
0.542938943334299 0.248557732273278 0.068982264942289
0.537286431184626 0.248912005411628 0.071922621007348
0.533502279570190 0.248251261013933 0.066387497468023
0.528873159928182 0.248055199710226 0.064611073877339
0.523207840122625 0.248420949327951 0.067869543419191
0.516515947938946 0.249323950196659 0.075506359130745
0.513085183042810 0.248479402933637 0.068392304750025
0.509592873215101 0.247696719032566 0.061587961820551
0.503998973833821 0.248012680619951 0.064192475080866
0.501041829958176 0.246911175512974 0.054871821141308
0.495686616081215 0.247117225717009 0.056534654579051
0.488962213965019 0.248030645460715 0.064477067487380
0.483428890540018 0.248308956068577 0.066754564570957
0.478132909597493 0.248477543453351 0.068092957277999
0.474945900395003 0.247497187111403 0.060025837362669
0.471737744604325 0.246566896095949 0.051946423702477
0.465556859471152 0.247211163915306 0.057358753331261
0.457992540128493 0.248524777655746 0.068720813916084
0.456171920431419 0.246899248166279 0.054684416185301
0.449551401681517 0.247736939226495 0.061969214962581
0.444749485734507 0.247622697540697 0.061096122067425
0.439375232139308 0.247826088303054 0.062723993010327
0.436768346541192 0.246602502931264 0.052124593555997
0.429153277332019 0.247951316580308 0.063785518927868
0.422546986069803 0.248775547900777 0.070728331515078
0.418939615251170 0.248038277526117 0.064510628915095
0.412063951539181 0.249008492985172 0.072703815718533
0.406777216335683 0.249123682291883 0.074010021868624
0.402405594759107 0.248813645437126 0.071231664702085
0.400665286020044 0.247188035211246 0.057182697907584
0.390333152683015 0.249848933073618 0.080073673541165
0.376453027544105 0.254287691650454 0.117973444487878
0.373311114753948 0.253330060870183 0.109863020689404
0.373230471349015 0.250875568593284 0.088930718303625
0.366152456934837 0.251915828121887 0.097714669601298
0.360323332440398 0.252309594979653 0.101179416488037
0.353123309680646 0.253385100861103 0.110260582428711
0.343114307315263 0.255822232068843 0.131227234424368
0.316265270867951 0.266495523049812 0.222521051484592
0.288221527031025 0.277687923048549 0.318485680801034
0.277414838262334 0.280474990199575 0.342223576010371
0.274138291569747 0.279549712118301 0.334384951984337
0.269138003953338 0.279463470396537 0.333732377289366
0.264484543535660 0.279194228144901 0.331508710385704
0.260242103127737 0.278769083964925 0.327723629167029
0.254865885560517 0.278864647802603 0.328624950491665
0.249442874432865 0.278996867577264 0.329841486542606
0.244977569325444 0.278654498660378 0.326989099510871
0.242729298720724 0.277307216237436 0.315073730819154
0.237662138875209 0.277256293085000 0.314715568009736
0.231751043369016 0.277605995860809 0.317788035628771
0.228665156203367 0.276644657359008 0.309633616853318
0.224648141947617 0.276082742280303 0.304892374543674
0.217607968392228 0.277004693443840 0.312639257124245
0.215094904180045 0.275750923680931 0.301971715451195
0.208744823222653 0.276344512732656 0.306903584738868
0.205809936606368 0.275309645626583 0.298111370768519
0.198957148191055 0.276120681941218 0.304901201022881
0.194986095593821 0.275558429470672 0.300152761253171
0.192224665514821 0.274450658753594 0.290732669158241
0.185315130258125 0.275297671597596 0.297829781550727
0.179781761344661 0.275436782732818 0.299311772266198
0.175301273465484 0.275155226721290 0.296739404247024
0.172038377684111 0.274276346184957 0.289503708261434
0.166426381175618 0.274503286776256 0.291282581298606
0.159573252757527 0.275286233305302 0.298051402234034
0.156368952480009 0.274422246113562 0.290485542355800
0.150383986654140 0.274804669260628 0.293821149012033
0.147349053266940 0.273841852295307 0.285632440465128
0.140241657927284 0.274758640029574 0.293317169370014
0.134759636887706 0.274922644369636 0.294780918724247
0.131334317110466 0.274115230161930 0.288145874060952
0.122408411909256 0.275855739351362 0.302654426075922
0.118612057826289 0.275230027680736 0.297576472906857
0.112120837332012 0.275854383899672 0.302750351876642
0.102411531314533 0.277905326709669 0.320371609264563
0.093382417366211 0.279628188813518 0.335179116961791
0.092558366323929 0.277709867408194 0.318568981639785
0.088162695210222 0.277362865021302 0.315644144589283
0.079672265735034 0.284028975776653 0.328301641178530
0.086715496437140 0.283184397129299 0.321291895190774
0.094421444027578 0.282035873979061 0.311462086938030
0.098572514386969 0.282494193067436 0.315316460515660
0.106617943605300 0.281173111189275 0.304242689861525
0.111384484479188 0.281338258713356 0.305595917367634
0.117716107270103 0.280809534924394 0.301041944732684
0.122511899903865 0.280948672554586 0.302398890979999
0.127760124955560 0.280893928923461 0.301876287397801
0.135603906285254 0.279695801819386 0.291393993001726
0.140554876689147 0.279761109099089 0.292118600098451
0.143510054446976 0.280766284916233 0.300620758525714
0.149581178039318 0.280345408214790 0.296978419208229
0.153739823993976 0.280775891374318 0.300809431194342
0.161837526984728 0.279402992686389 0.289055453066987
0.164680040874378 0.280481439616207 0.298179517377637
0.168339558579235 0.281156576336570 0.303863142711799
0.175690916878265 0.280149342434038 0.295224611803110
0.180092304366721 0.280469237379073 0.298108222417554
0.187555889207364 0.279387527095548 0.288830727898864
0.192142986905715 0.279634238496638 0.291091188707824
0.197560524475493 0.279503609949176 0.289910300186608
0.200794246875860 0.280398022351113 0.297456983528630
0.207643085834604 0.279582263960375 0.290666660614022
0.210651842638986 0.280586368211293 0.299145284738621
0.214288742159007 0.281297483211201 0.305127701207667
0.219043665490712 0.281470045924950 0.306750344149093
0.223722801815156 0.281679074154315 0.308682459269497
0.226250991418673 0.282966222184537 0.319343883609061
0.231827962109932 0.282760873986252 0.317517499106819
0.238274872396760 0.282126376577199 0.312263242078247
0.244028156338464 0.281821469339102 0.309814359648986
0.246197828286120 0.283265670690619 0.322034096649463
0.249900713854762 0.283976629769693 0.328008432485859
0.252517406652378 0.285200601629120 0.338347819837058
0.261076764104632 0.283537804289476 0.324331508148927
0.263053410355466 0.285092216124361 0.337485026066307
0.266926810229614 0.285703366818721 0.342830900630736
0.273960923284968 0.284799420550750 0.335047292898455
0.275664345175070 0.286474562673270 0.349451811001262
0.284143845898844 0.284899260424460 0.335724921885252
0.311717536783462 0.273835460880942 0.241642634182195
0.341671712999604 0.261583287551827 0.137217631816464
0.353050553211510 0.258445978157410 0.110633600075340
0.362116862515601 0.256433946923281 0.093407292386919
0.371267205469794 0.254359564885960 0.075869609270145
0.373718749981243 0.255652954177414 0.086794110322879
0.376329218793467 0.256873013187124 0.097092812787628
0.381195179327119 0.256928359602393 0.097688536740701
0.387891057170343 0.256090124137177 0.090454793525979
0.394097115050565 0.255483837377510 0.085415880839805
0.396072458734805 0.257009112708598 0.098528371258523
0.403191009851034 0.255949370127086 0.089404774818393
0.413517976981718 0.253271760946412 0.066504729524917
0.417859566509943 0.253608121871539 0.069268548848220
0.421512329038713 0.254287289249332 0.075170673021455
0.427473774941160 0.253814657488850 0.071045004089823
0.435296245488723 0.252334821170231 0.058776419110069
0.440210554571517 0.252376041841722 0.059022620850307
0.446124595569314 0.251901931670221 0.054879122198715
0.452063286709472 0.251427875013896 0.050737149488831
0.454159027205597 0.252915730609964 0.063519398750785
0.460451405955564 0.252257222514967 0.057804314706272
0.463908214447411 0.253045664827607 0.064628226579855
0.469206248593180 0.252876823211103 0.063298724927938
0.473306155715611 0.253358921988321 0.067293917865048
0.478813775258378 0.253104391793133 0.065014693978463
0.480818014979768 0.254665925084242 0.078418270669429
0.488802246688788 0.253122201842148 0.065159742571138
0.494621769215652 0.252657092023977 0.061299704564819
0.498104166161311 0.253469997361756 0.068106659521722
0.502108733702592 0.254000095623893 0.072723963930734
0.508230863473959 0.253387259450998 0.067604595070293
0.511589089209427 0.254273624505030 0.075033931632174
0.519110897977388 0.252923384453665 0.063634288900046
0.524463330170080 0.252740322729111 0.061953900123718
0.527859436049868 0.253601434350394 0.069384793058815
0.532939363781825 0.253540261326845 0.068958134415988
0.536755242538822 0.254205197196337 0.074498282633376
0.541662903032830 0.254279933810923 0.075010812901248
0.546676192287915 0.254255061566781 0.074890137591974
0.552596456932781 0.253750741247856 0.070687000358075
0.557606240028665 0.253750627228598 0.070556943649123
0.563652664159049 0.253171903780490 0.065717892286266
0.566612038879227 0.254290503316730 0.075333303316766
0.574591987205112 0.252666124642679 0.061368531390722
0.579461131116586 0.252713627672302 0.061857541590253
0.583865256980803 0.253019358925991 0.064544786582132
0.587904219452316 0.253572076571467 0.069118512520170
0.594026501883372 0.252955099683925 0.063948820992003
0.600508038009397 0.252141024835033 0.056879754329140
0.604059169203582 0.252926160765706 0.063645607727540
0.610072764024348 0.252370043979011 0.058771346806002
0.615557391939693 0.252083935839091 0.056413275332522
0.622994690483423 0.250689108864872 0.044611152375842
0.630057767452445 0.249515850914308 0.034696546992479
0.635363933330709 0.249327393643902 0.032947824179627
0.638628417430894 0.250321803442597 0.041274098454710
0.644059435996984 0.250071577473429 0.039217743501069
0.650842728856037 0.249007061234084 0.030221369469711
0.656318938704526 0.253712611559067 0.027897389182987
0.651218779187257 0.253753843675035 0.028389995767419
0.644371852974551 0.254861685374049 0.037700689169519
0.640005568475332 0.254518864351203 0.034725504574667
0.636160872786818 0.253853426213476 0.029233273356539
0.628846774430519 0.255182539927795 0.040410599801252
0.623178956831971 0.255582432940236 0.043720685406949
0.616853256326595 0.256353628871262 0.050173358407146
0.608815556964369 0.258065288388705 0.064803984451992
0.604704319833027 0.257572481856569 0.060552115554514
0.600363672935565 0.257203323447489 0.057564377171677
0.596326573085125 0.256673152474874 0.052994082547932
0.591565349689549 0.256551400576446 0.051880812715924
0.585645647733556 0.257035189077184 0.056107835245217
0.578781020489417 0.258101513447524 0.065053349928293
0.572707393974270 0.258696657935341 0.070224974997003
0.567371437020319 0.258870486619703 0.071607850666824
0.563637727862818 0.258191125824567 0.065769716070171
0.554763020553113 0.260306613110489 0.083808524309800
0.550120585565075 0.260108862273591 0.082043762924461
0.546321866547830 0.259440809689143 0.076514989816719
0.540734506499984 0.259762153147769 0.079143142406823
0.537283012564894 0.258908405095996 0.072039930581254
0.532717658770394 0.258672947884252 0.069951757033050
0.527294839367928 0.258919828605506 0.071948196063438
0.521046345114944 0.259586165691727 0.077711719337792
0.516784824588909 0.259202153287912 0.074364435860862
0.511945273512773 0.259114208038401 0.073520829712218
0.508725675441861 0.258148643565152 0.065464604962139
0.503128992649987 0.258442876197450 0.068071272845443
0.496516699235947 0.259318323648387 0.075382952751019
0.492681516817997 0.258711170562322 0.070141182122500
0.488013902284683 0.258523315001572 0.068665021492423
0.481387456879683 0.259372548145372 0.075968268250950
0.477489232212233 0.258802020794740 0.071033271114001
0.472933051449106 0.258564338576299 0.068913294364926
0.468297426385950 0.258376127068224 0.067431784189392
0.464976638702787 0.257509049256267 0.059983126627796
0.460175155659814 0.257394244921381 0.059118820294569
0.454989021908185 0.257489141597340 0.059810366396685
0.450003744209955 0.257485377557761 0.059886016323782
0.441631394094595 0.259245636153452 0.074676539101418
0.438110355483988 0.258463705623802 0.068160041730132
0.430104392463388 0.260038398939117 0.081379209971255
0.425075002415465 0.260033014145161 0.081435019034795
0.421487578535082 0.259287615463819 0.075224585434390
0.418412804074714 0.258308540575504 0.066817894385713
0.414507105456785 0.257748450531675 0.062176095232672
0.404721080616759 0.260208589401252 0.082886175094266
0.396744994843720 0.261705859014271 0.095438645415610
0.394070742236640 0.260516409283413 0.085465891063602
0.384015542953855 0.263060234972234 0.107098042169910
0.380391264083733 0.262376279172449 0.101184966998521
0.380008721498221 0.260015743638988 0.081511622702549
0.374900313824595 0.260095698618669 0.081844867615058
0.368195360118942 0.260938045010975 0.089067653302797
0.360667076209456 0.262186254432865 0.099725555472722
0.353467516958591 0.263274174428539 0.108805511661004
0.341896594465632 0.266515449576412 0.136334531679843
0.305007306655825 0.282298555815336 0.269819923838241
0.284117468569245 0.290076932428774 0.335758622777035
0.276268198559213 0.291392922655595 0.346987259769070
0.271335439374895 0.291295074627707 0.346020397163445
0.266598292121124 0.291085864385466 0.344107418241806
0.263811154197465 0.289902525437211 0.334400784388408
0.261003574214048 0.288771165808226 0.324681332489917
0.253808723928030 0.289753359180075 0.333078236141544
0.252151679575259 0.288068586883222 0.318671661593432
0.246503878392175 0.288313033559799 0.320822892477100
0.238348515474412 0.289736274210866 0.332947881987225
0.235214479112195 0.288789395023734 0.324787043172216
0.233362144402539 0.287189248866829 0.311316829908304
0.228603230604491 0.286990023189378 0.309705163760452
0.224184462121425 0.286669737099269 0.306845989410007
0.219382233774446 0.286507507593459 0.305547604573139
0.214705023118667 0.286270950953430 0.303616495680346
0.211813579375367 0.285186924441187 0.294509698140041
0.206319070077611 0.285381850660479 0.296007976458722
0.200402073999618 0.285760207208981 0.299055523158206
0.197245095529723 0.284797762418156 0.291200606385845
0.190730766019608 0.285470670355327 0.296741990770217
0.185355683375191 0.285564461650838 0.297600692518776
0.178515987436027 0.286357856948694 0.304383319383041
0.172062123172557 0.286966776813837 0.309603201767446
0.169392249943126 0.285834987811305 0.299861887876063
0.165229027446349 0.285402367159570 0.296038627376883
0.159800484776082 0.285532264114002 0.297199747776803
0.155054824419941 0.285304334635185 0.295551613576955
0.151934349537017 0.284419177991666 0.287670805733129
0.144830267228147 0.285294756492877 0.295364406574239
0.137507679348057 0.286332686688898 0.303986903371613
0.137200369363752 0.284108336942392 0.285212662518577
0.130002754922906 0.285045681496869 0.293202458703155
0.122826317680383 0.285983011492658 0.301193584412508
0.118757178037196 0.285512219305154 0.297037059540830
0.112508422476558 0.286007383206899 0.301280218811008
0.106366086499422 0.286465928707026 0.305214808819262
0.097020412890153 0.288356198983107 0.321266117031010
0.093760993358504 0.287491148049391 0.313991113613903
0.090050386710780 0.286846955989000 0.308587130345787
0.079979890956852 0.294253695358568 0.327132524122622
0.086584313292029 0.293583705494319 0.321671217515142
0.090139800762120 0.294305712789434 0.327698451505629
0.098392378418973 0.292922815916451 0.316014415041246
0.106975092126872 0.291353534586691 0.302755763294876
0.112742643482404 0.291051490547435 0.300386055629807
0.118506964128247 0.290775190227765 0.298009503606620
0.123060190074427 0.291027036856741 0.300299169790321
0.131039829272081 0.289740548886732 0.289193762663641
0.136391304821651 0.289622146168747 0.288364828826031
0.141261254290882 0.289751385146261 0.289396992038771
0.146101150935358 0.289879954513091 0.290419957283080
0.150285988810939 0.290316218624077 0.294258423171084
0.156033549146702 0.290037979407686 0.291857737015459
0.163492042862614 0.288944902337182 0.282595655010638
0.167092621334799 0.289665144434638 0.288596300559696
0.172041689497818 0.289730146101765 0.289303153628822
0.175288305205465 0.290635815033514 0.296864631386733
0.179927198395284 0.290848597257511 0.298813252242136
0.184598375532801 0.291087729689496 0.300762642716762
0.191792561142625 0.290129693462822 0.292408151480434
0.196070746837971 0.290527513314537 0.295913003657867
0.202425360739406 0.289950599073895 0.290988571498250
0.206472329950057 0.290459205687277 0.295423637913465
0.212944541746121 0.289807112873288 0.289861842098793
0.216638410060448 0.290501150687522 0.295857749985512
0.220431578074401 0.291146118865129 0.301212733296364
0.225077649196540 0.291383299466292 0.303134397581667
0.227834323767543 0.292521543422470 0.312863649425577
0.229220922232005 0.294353352247544 0.328206609106832
0.235490527593929 0.293811673906876 0.323569460619404
0.239418533391596 0.294419822369412 0.328611001043235
0.246246001276275 0.293592233396908 0.321790674150615
0.251089474890069 0.293754880714046 0.323080487903904
0.255220745444532 0.294224688093206 0.327175214914326
0.262140666944396 0.293359456596493 0.320036732944237
0.263512299823370 0.295254776629879 0.335683357674060
0.265924201774853 0.296577979210859 0.346957777886835
0.270932946031425 0.296665793615047 0.347611947309411
0.275342371272326 0.297024211522210 0.350766381455749
0.276720383735158 0.298931585140040 0.366735217432834
0.292598714229765 0.293596590066712 0.321741893095841
0.334947759641839 0.275011959882501 0.165453032318713
0.350692255361521 0.269672215075489 0.120421396114186
0.361601591971572 0.266746049006079 0.095705885963985
0.369053908995397 0.265502348406235 0.085364100541119
0.374503955240296 0.265286771797406 0.083458586156462
0.377775298902440 0.266161031402699 0.090942971574379
0.379747597868489 0.267691664412978 0.103730505646123
0.385702253626698 0.267228104566132 0.099954974779317
0.395242357212821 0.264929694256540 0.080514112566329
0.401045907105041 0.264501617257967 0.077030386557545
0.404592839162012 0.265251360758460 0.083243422193163
0.413206793311067 0.263410255803046 0.067868224605864
0.418562044906586 0.263229625352805 0.066248353326960
0.421060002259736 0.264512042792269 0.077159454017234
0.425482379179952 0.264814793470159 0.079605924327933
0.431013433136670 0.264559620346192 0.077357332774497
0.435867246437093 0.264613446452005 0.077922177890072
0.441852187047848 0.264134817541040 0.073792654336668
0.447629736097230 0.263704233406948 0.070277965257929
0.455096905710562 0.262443047352493 0.059559562207129
0.460010909625109 0.262458575476638 0.059797444520642
0.465773179676804 0.262052204955917 0.056267937009264
0.469515450609494 0.262726047922139 0.061831511965099
0.473785842415326 0.263114276492241 0.065207251749151
0.478491096808463 0.263266018002862 0.066372086419107
0.480387034770077 0.264920789953791 0.080406353496632
0.487714407309950 0.263668751665118 0.069970740963957
0.493079525558711 0.263484951682537 0.068309999491669
0.498789613543952 0.263114512412328 0.065077283146071
0.503040543765682 0.263501374336651 0.068433147726595
0.508845051382590 0.263068299493873 0.064888360347416
0.512025705096302 0.264051772918273 0.073266039359190
0.517523098886123 0.263792241342706 0.070962371185159
0.523291720908641 0.263358006781318 0.067402615530666
0.529603029195160 0.262675491121626 0.061321244646373
0.531843674219947 0.264180828440368 0.074086946293364
0.535361239929955 0.264977015881853 0.080880910801304
0.540205340617865 0.265064598472027 0.081711272594987
0.545358436788570 0.264990292565452 0.080960127396928
0.550675136495136 0.264816210812338 0.079585780870616
0.555690600615460 0.264816069573810 0.079456786119276
0.562279809434839 0.263932209389181 0.072105732924143
0.566285398946778 0.264491548541473 0.076684031239570
0.571157028015734 0.264552952931469 0.077505091593874
0.578197485995023 0.263431970956310 0.067938931942801
0.582805092660247 0.263629406285315 0.069683335740015
0.588437944894089 0.263291996850111 0.066710921684186
0.595718917050061 0.261995150040499 0.055876620523285
0.599596419661460 0.262628028652385 0.061067887315757
0.600910241687059 0.264730976038881 0.078851506243290
0.607820705373305 0.263619665683221 0.069574001409659
0.614619336813211 0.262608230391253 0.060922474396407
0.622124710387356 0.261159972654000 0.048808081919757
0.628315747220118 0.260458836133977 0.042981454804488
0.633073532606290 0.260604970400758 0.044071152634030
0.637767475271343 0.260788313812333 0.045472954234460
0.644461094915294 0.259787069426041 0.037116971342003
0.650788760103256 0.259010156981240 0.030649842535950
0.653543731038743 0.265293247757695 0.041537511979379
0.648657732082241 0.265222448929349 0.041088879077762
0.642998263799894 0.265627898367110 0.044411485620008
0.638110284157224 0.265556630364656 0.043956845761205
0.630240631904504 0.267265143418634 0.057968818437423
0.625379771774965 0.267155273156175 0.057187441544322
0.620839715924817 0.266895571017396 0.055154571421293
0.614833848816862 0.267487469148210 0.060032036274628
0.609316447619221 0.267777983079010 0.062384244225024
0.604841334687932 0.267480048635868 0.060028328151758
0.599284312503217 0.267808002515410 0.062693536094648
0.592534485217010 0.268811958975144 0.071014931707414
0.583985921939342 0.270804515405401 0.087823129691757
0.579005083689019 0.270793291557494 0.087646181564277
0.576288743265497 0.269479594121068 0.076782658170268
0.571914585381574 0.269130089608404 0.073772707101858
0.566166961162976 0.269544102063520 0.077367787791633
0.561996414946827 0.269106852457544 0.073406955857013
0.556348777631313 0.269444879167061 0.076362020045596
0.552752278030064 0.268656904015536 0.069894658081932
0.547470649187679 0.268832427568195 0.071275171933476
0.541410686906056 0.269420116975972 0.076101931160256
0.536297285343674 0.269482130264708 0.076528370925319
0.532099609409263 0.269031296403217 0.072878327790700
0.527260202085969 0.268942839317719 0.072043462920240
0.523136850158950 0.268454236482040 0.068075149185520
0.513792663984758 0.270815888442136 0.087958510537500
0.510215281757473 0.270052001927209 0.081469740420256
0.505232802699256 0.270037596265458 0.081250128999081
0.502219884011577 0.268948337663144 0.072251077321077
0.497549657232178 0.268758824334305 0.070780351433717
0.493855532779355 0.268069624771920 0.064912619299099
0.488462187787809 0.268279433343524 0.066565272615897
0.483796259491038 0.268089418087272 0.065087081697902
0.475482716475047 0.269847562120208 0.079911106680602
0.472427940474256 0.268820538217158 0.071211908974101
0.465956734604811 0.269604189480956 0.077880713612362
0.460296047934702 0.269962830535217 0.080775249877441
0.456515410406797 0.269309604218304 0.075199035071273
0.451947694913272 0.269081229081128 0.073395534701002
0.446069486912173 0.269526207911254 0.077223851441807
0.440472099512259 0.269846372573799 0.079792083396744
0.437877930575846 0.268594109849917 0.069200799827439
0.433961590188599 0.268028229860198 0.064568637936140
0.428005847066975 0.268509673176424 0.068697654195081
0.424598845321656 0.267706816150978 0.061866053179914
0.421356288088902 0.266790846305109 0.054082990589277
0.413761023937814 0.268132431805645 0.065408425844137
0.403652686138802 0.270744694135650 0.087364343515756
0.401268159284983 0.269417546617764 0.076140890275630
0.392806985574844 0.271168483378790 0.090886864532272
0.389188160981471 0.270476806063440 0.084978927780762
0.387042486351297 0.269012119653442 0.072816044016159
0.382821380494777 0.268593799693118 0.069405956468822
0.371085779757042 0.272012793325959 0.097891448615166
0.365479564600492 0.272304157650080 0.100420353670330
0.359944058113035 0.272583205777133 0.102629917893041
0.350174362660998 0.274966119369892 0.122658955520685
0.327955652880329 0.283611994777666 0.194878858745700
0.293498267882726 0.298317859944911 0.318025003958177
0.277784966828836 0.303596865817725 0.362062547557539
0.272093678193629 0.303844850021716 0.364224510324237
0.271131400106513 0.301740409880832 0.346700311857544
0.267734642818631 0.300894867152621 0.339489206727544
0.264993767679157 0.299686753075751 0.329463113032061
0.260372717856290 0.299437902438463 0.327240928193665
0.256663363504544 0.298714965151355 0.321272481038251
0.253036163943616 0.297954696427374 0.314990427880953
0.248044557332287 0.297865915789371 0.314326144450157
0.242396841977035 0.298139195229616 0.316471177588832
0.237281768892083 0.298125017042399 0.316431256783982
0.230755116583788 0.298807495783237 0.321995776957907
0.226143206720990 0.298531305640570 0.319758931174039
0.221764373155862 0.298143124880726 0.316583813242428
0.222639004404217 0.295246120813890 0.292193063689274
0.215398738859762 0.296275304475833 0.300880304270656
0.210848410538837 0.295960989656833 0.298317480905205
0.207480674215385 0.295152323012538 0.291402995915739
0.201331981766778 0.295620648036508 0.295389124156038
0.197052299584126 0.295194598416147 0.291890297419853
0.194528325286955 0.293975508271974 0.281536103142031
0.188878024882825 0.294220169293661 0.283649614758419
0.179844695496046 0.296065647345985 0.299157191747754
0.175174585754718 0.295825012978237 0.297205448087391
0.171435919098796 0.295201730072854 0.291834551908643
0.166722484184330 0.294998539278027 0.290196266877118
0.161186646683652 0.295166842608558 0.291662996868139
0.156107268355810 0.295149794775160 0.291582467892798
0.151395036963595 0.294972029759244 0.289932792116869
0.145486709135931 0.295326074454800 0.292952790532441
0.138214467990921 0.296338125340380 0.301256561354768
0.132535826433166 0.296553806216867 0.303337787134335
0.127336369482224 0.296598191655523 0.303542248878276
0.121894548888444 0.296727827580232 0.304680120590107
0.119759314820754 0.295333119218209 0.293061778902045
0.111328843642190 0.296863696652792 0.305698715040561
0.104778327028773 0.297513340387496 0.311186857805229
0.099652259993830 0.297493237572491 0.311067372463803
0.091545177011422 0.298848026513983 0.322453733151297
0.086931891309494 0.298631016778692 0.320465247922434
0.081952810211275 0.303704179544715 0.319744336738795
