# This PCD file was generated using the MATLAB® pcwrite function
# from Computer Vision System Toolbox®.
# .PCD v.7 - Point Cloud Data file format
VERSION .7
FIELDS x y z
SIZE 8 8 8
TYPE F F F
COUNT 1 1 1
WIDTH 883
HEIGHT 1
VIEWPOINT 0 0 0 1 0 0 0
POINTS 883
DATA ascii
2.547379645907510 2.654279930461522 1.196872297434596
2.547379645907510 2.127890932526930 1.150770280797954
2.547192042220825 3.138064777544967 1.177900435606414
2.547004550169776 2.415844684993563 1.073933850261295
2.546817002300909 2.854595778052501 1.229693750703164
2.546817002300909 2.806385518916406 1.221346271720307
2.546630291699313 2.623821567913978 1.200666760265745
2.546442799648264 3.215051143506116 1.142991942969298
2.546256144864487 2.834227385738794 1.225709649541875
2.546256144864487 2.827500590412023 1.224761118645506
2.545693501257886 1.998022216391083 1.148303964769125
2.545319298605242 2.922613083577955 1.227796688910425
2.545319298605242 2.367821541165583 0.988749375332327
2.544945040134779 2.417339379895299 1.050787909696013
2.544945040134779 2.337736518208994 1.007911214736320
2.544945040134779 2.280556753124565 1.056669411895711
2.544945040134779 2.254022465895797 1.080763657193581
2.544570000214863 2.308585958011389 1.031626183373911
2.543633991222890 2.226367046112566 1.102202061214373
2.543446499171841 2.419208305413267 1.035230894793029
2.543258895485156 2.578414028785877 1.217551695807268
2.543258895485156 2.551132171349922 1.230642507763313
2.542883855565240 2.508527797742455 1.230263118021144
2.542883855565240 2.482927722671812 1.214326487212209
2.542697144963645 2.456206793492106 1.191370524222739
2.542135394442133 2.433409883942096 1.166327182619048
2.541947902391084 3.160301204351366 1.172398323148886
2.541947902391084 2.147885316980723 1.146406676812606
2.541011949216929 2.978110982763452 1.206927539125723
2.540636853479195 2.996049604836560 1.201805042574145
2.540261757741461 3.049865693812205 1.198010692824886
2.540075102957684 2.751074233837307 1.213567594645980
2.539700844487221 3.026134126591431 1.199148975133286
2.539700844487221 3.018473146951075 1.199718003205595
2.539513352436173 3.065188265672795 1.197631190000826
2.539138256698438 2.952137206122835 1.222484554028707
2.538763998227976 3.182350515849648 1.164240482496169
2.538763998227976 2.078185755732779 1.167655442503258
2.538576506176927 2.062863016804948 1.167655442503258
2.538202247706465 3.087611752098230 1.196303156280397
2.538014755655416 2.551132171349922 1.230832033011563
2.537639604099864 2.508527797742455 1.230452756351283
2.537265457265037 3.234671854234476 1.135403130388891
2.537265457265037 2.100795967642771 1.166327182619048
2.537078802481260 2.577853573886806 1.217551695807268
2.536703706743527 2.348947843753613 0.996338187912734
2.536703706743527 2.037823647234235 1.165947792876878
2.536328611005792 3.109101109899159 1.192888196273308
2.536328611005792 2.482367295617280 1.214895628366409
2.536141956222015 2.454524983282253 1.192508806531138
2.536141956222015 2.431353870960551 1.167845193915288
2.535580205700504 2.166945015919214 1.138817977314089
2.535392602013819 2.966338756807123 1.221156520308277
2.535392602013819 2.643068131559725 1.196492907692427
2.535392602013819 2.263552426743201 1.065586258196548
2.535392602013819 2.114997574016139 1.164430233908199
2.535205109962770 2.884306514703778 1.244871375863978
2.535017562093903 3.196178337119423 1.159118099026482
2.535017562093903 2.635593793870306 1.197441438588796
2.535017562093903 2.319797951824965 1.016638422707017
2.535017562093903 2.290460276319244 1.040922532498807
2.535017562093903 2.238139272068895 1.089111362340218
2.534830851492307 2.665491701518779 1.195164873971997
2.534643359441259 2.898134391662633 1.244491986121808
2.534643359441259 2.021753560855537 1.164240482496169
2.533894061050880 2.912335942346921 1.244112709461529
2.533519802580418 3.123863171171599 1.190042264338529
2.533519802580418 2.864872807905375 1.242215308423119
2.533332310529369 2.680440432586697 1.195923540374446
2.533145655745592 2.816475934662882 1.228175965570704
2.533145655745592 2.612983554115774 1.201805042574144
2.531646165879745 2.400708838617529 1.100115021845824
2.531084415358234 1.997835101082967 1.161015047737330
2.530897760574457 2.846560456417753 1.237282676365461
2.530897760574457 2.539547060701709 1.231970428401852
2.530710156887772 2.986706258095553 1.217931198631328
2.530710156887772 2.519552453491596 1.232349818144022
2.530523557921813 2.358852035217250 0.991215804443046
2.529960914315212 2.934946209945993 1.240318133548490
2.529773310628527 2.135365298060888 1.159118099026481
2.527901404280215 3.005953350787559 1.213947097470040
2.527901404280215 2.562531029870755 1.223053695182906
2.527526364360300 2.791623457643966 1.224002339161166
2.527338760673615 2.732575212554207 1.206927539125723
2.527151268622566 2.770507940635710 1.219069594021618
2.527151268622566 2.419208305413267 1.157220811069962
2.527151268622566 2.332130632680365 1.005065395883431
2.526964613838788 2.496382204350631 1.223433084925076
2.526777010152103 2.948960645322166 1.237282676365461
2.526777010152103 2.751634633047298 1.213188317985701
2.526590411186144 3.038093523544956 1.209583493484691
2.526401914414369 3.222899739656307 1.148493603099265
2.526215259630592 2.439575806701697 1.181884536767702
2.526215259630592 2.181707077191654 1.130280633837312
2.526027767579543 2.403138205112299 1.128952487034993
2.525840163892858 2.248043018019894 1.074313240003464
2.525840163892858 2.204691074205239 1.113205720719979
2.525653509109081 3.170765405201435 1.172967690466866
2.525653509109081 2.592802304954724 1.207686318610062
2.525653509109081 2.273269280142403 1.050598271365873
2.525466017058032 2.225245913558104 1.095941282354396
2.525279362274255 2.707348504919059 1.198200218073136
2.525279362274255 2.467044333933131 1.204650748345143
2.525090921320298 2.301485154824705 1.026503799904223
2.524716662849836 3.063880184877457 1.208634962588322
2.523968257544547 2.078559540836372 1.178279712266693
2.523031467103120 2.654093260666044 1.190801269986649
2.523031467103120 2.050156550845954 1.177141316876404
2.522657264450475 2.097993247634776 1.176762040216124
2.522468767678701 2.547955666238333 1.229124722630854
2.522468767678701 2.152743409545845 1.150960032209984
2.521907017157190 2.510770480519477 1.229883502115193
2.521720362373412 2.624942923224759 1.194785371147937
2.521532870322363 3.146473383081591 1.184350739714641
2.521346215538586 2.897573435561843 1.255306120379164
2.520595968245300 2.874776609545453 1.252270323950464
2.520409369279341 2.976242112934563 1.231021784423593
2.520221821410474 3.126479110005957 1.193077947685338
2.519660070888963 2.020819320852872 1.175813283155974
2.519472467202277 3.107979754588378 1.200477008853715
2.519472467202277 2.531885579859634 1.231211535835623
2.519472467202277 2.526653479434600 1.231401287247653
2.519284975151229 2.344089973944810 0.995200018686225
2.518910716680766 2.575050853878811 1.214705876954379
2.518348966159255 3.085369486989306 1.207496454116142
2.518161474108206 3.242333446454710 1.141853547579008
2.517599723586695 2.857211772575939 1.249424844343247
2.517413068802917 2.921678843575290 1.252270323950464
2.517413068802917 2.122471716793779 1.170311623026007
2.517037973065183 3.196365341049379 1.165378877886459
2.516850425196317 2.423505720322999 1.171260040840486
2.516662821509631 2.996049604836560 1.227037683262304
2.516662821509631 2.679879977687626 1.189662761514469
2.516288674674805 2.256638516108314 1.059325479336570
2.516101964073210 2.388562827557607 1.118707720095617
2.515913578937071 2.481806840718209 1.215464995684389
2.515539320466609 1.998395778738357 1.173157328797006
2.515165173631783 2.449479552652696 1.194595506654017
2.514977569945097 2.232533386540267 1.083988865788640
2.514790915161321 2.282425455886214 1.035420646205059
2.514602474207364 2.607191026636208 1.197061935764736
2.514415819423586 2.382396487129907 1.101632920060174
2.514415819423586 2.313818058436424 1.012274818721668
2.514228327372537 3.017725521054807 1.222484554028707
2.514040779503671 2.694642038960065 1.190990795234898
2.513854068902075 3.210193273697314 1.160635771077051
2.513666576851026 2.753129383638115 1.212619063749610
2.513666576851026 2.343155733942145 0.995579521510285
2.513479922067249 3.025013216793289 1.221346271720307
2.513291425295474 2.169934851235325 1.141284293342918
2.512917278460648 2.838151906570209 1.242974200989349
2.512168817337542 2.558233197292925 1.220397627742047
2.511793777417625 2.394915837780784 1.140715152188718
2.511606173730940 3.047436758907803 1.218121063125249
2.511418681679891 2.949894941013911 1.247527443304837
2.510857768425652 2.499371621998644 1.222863943770876
2.510295180636869 2.420889670110482 1.172588074560916
2.510107632768002 3.061264190354019 1.216413413498869
2.509733430115358 2.140410728690445 1.164050844166029
2.509545882246491 2.717626035973651 1.196303156280397
2.509171679593846 2.963909432079163 1.244112709461529
2.508796528038294 2.061928776802283 1.187006694073610
2.508609929072335 2.587383534734211 1.203322714624714
2.508609929072335 2.076317052971129 1.186437666001300
2.508422381203468 3.074531501035643 1.215085379778439
2.508234777516783 2.884680355496452 1.262135927311451
2.508234777516783 2.541975995606111 1.223053695182906
2.508234777516783 2.448171527546437 1.195164873971997
2.507860630681957 2.896265466144664 1.262325565641591
2.507673026995272 3.229813650291194 1.153805851062873
2.507673026995272 2.515628350328280 1.224761118645505
2.507485534944223 2.096685222528517 1.184350739714641
2.506736236553845 2.038197209581510 1.186437666001300
2.506362033901200 2.265607799300328 1.044906633660096
2.506362033901200 2.241689562284078 1.068811240627826
2.505800283379689 2.868236428325080 1.258720967304362
2.505800283379689 2.370437577455831 1.091388040038908
2.505612735510822 2.908411922717225 1.262894819877681
2.505425131824137 3.092283453313273 1.210911527205121
2.505238532858178 2.795173302346510 1.225899287872015
2.505050984989311 2.372866512360232 1.111877800081440
2.504863381302626 2.984277378880232 1.238800461497920
2.504863381302626 2.109578581039307 1.182074062015952
2.504676726518849 2.769387030837567 1.216413413498869
2.504489234467799 2.380154208098713 1.128762735622963
2.504301630781114 2.822455159782466 1.236903286623291
2.504301630781114 2.022688023614521 1.185489248186821
2.502054628695070 2.738928167088305 1.201994680904284
2.502054628695070 2.653719475562450 1.179038604832923
2.502054628695070 2.402390648827382 1.160446132746911
2.501867136644020 2.568884067938472 1.208445098094401
2.501679588775153 2.200392991026551 1.112257076741719
2.501117838253642 2.852913522330010 1.252080798702215
2.500930234566957 3.148341863086921 1.186627417413330
2.500930234566957 2.676890142371514 1.179228469326844
2.500556087732131 2.309707313322170 1.011705677567469
2.500180991994397 2.185818045062227 1.127055199078473
2.499994337210619 3.003523914681439 1.232919185462003
2.499994337210619 2.488534081557618 1.215085379778439
2.499806733523934 3.127226346078666 1.195733902044307
2.499806733523934 2.597661065788803 1.192888196273308
2.499806733523934 2.214407704848122 1.096510536590486
2.499806733523934 1.999890696396413 1.183781598560441
2.499432586689109 3.170952074996913 1.177710571112494
2.499244983002423 3.105550763994897 1.205978782065573
2.499244983002423 3.035664532951474 1.224381728903336
2.498869943082507 3.218788549029415 1.160446132746911
2.498308192560996 3.194309857114093 1.169552504295997
2.498121537777219 2.430232961162409 1.185678660353180
2.498121537777219 2.170682421442512 1.140715152188718
2.497933934090534 2.292702986940807 1.020812162198445
2.497933934090534 2.274203520145068 1.034282476978550
2.497372183569023 2.361468085429767 1.102771315450463
2.497372183569023 2.229917336327749 1.077538448598523
2.496810433047512 2.626624287921973 1.179987248811183
2.496810433047512 2.459944199015404 1.202753686552404
2.496810433047512 2.250659068232411 1.054392734197022
2.496622940996462 2.877205989962493 1.262894819877681
2.496247845258728 2.706227539431836 1.183971349972472
2.496061190474951 2.550945473709904 1.213947097470040
2.496061190474951 2.141718753796704 1.165189126474429
2.495873586788266 2.156480815069144 1.153805851062873
2.495499439953440 3.081445467359610 1.215464995684390
2.494936796346839 2.758361873886708 1.209393855154552
2.494562537876376 2.973252723131091 1.245820019842237
2.494562537876376 2.910467072518033 1.264981633082450
2.494375045825328 2.928218969106584 1.260618255260882
2.494375045825328 2.049969881050477 1.191370524222739
2.494000787354866 2.895144556346522 1.266499531296799
2.493813295303816 2.504603694579139 1.218310475291607
2.493625691617131 2.127143585076061 1.175623757907725
2.493439036833354 3.059582825656805 1.221156520308277
2.493439036833354 2.948213130804058 1.254357476400904
2.493439036833354 2.531511766911501 1.217931198631328
2.493063941095620 2.524971669224747 1.218500339785528
2.492877286311843 2.111820846148231 1.183781598560441
2.492502190574108 2.377724841603943 1.148683467593185
2.491566293217772 2.837030551259428 1.245061127276008
2.491191141662219 2.411546824571193 1.176762040216124
2.491191141662219 2.094816519766868 1.189283484854189
2.491191141662219 2.075382812968464 1.191939439213158
2.491003649611170 2.581403836257449 1.195544263714167
2.490816994827393 2.726782211717462 1.190232128832449
2.489692544881462 2.864872807905375 1.260428503848852
2.489130794359951 3.233363940506377 1.157030946576042
2.488944139576174 2.778916546172334 1.216603164910899
2.488569099656258 2.357356894802875 1.127814317808483
2.488194897003614 3.094899447836711 1.211670419771351
2.487445598613236 2.365205477030796 1.143750609371747
2.487070502875502 2.444247452227661 1.196872297434596
2.486696244405040 2.023248255757273 1.193077947685338
2.486322097570213 2.989509423616187 1.243164065483269
2.485947001832479 2.197776940814033 1.111118794433319
2.485759398145794 2.260189029079816 1.039594498778378
2.485759398145794 2.235336106548262 1.064258224476119
2.485572743362017 3.126853006487710 1.195923540374446
2.485572743362017 2.391178863847855 1.168414221987597
2.485385251310968 2.636154248769377 1.168793724811657
2.485197703442101 2.793865277240251 1.222105051204647
2.484635952920589 2.837217221054905 1.244871375863978
2.484261750267946 2.695389163654614 1.170501261356147
2.484261750267946 2.288778911622031 1.018914987323816
2.484074202399079 2.864872807905375 1.260428503848852
2.484074202399079 2.561596372199991 1.201235788338054
2.483886598712393 2.746776373414937 1.197061935764736
2.483324848190882 2.910653686624431 1.266689282708829
2.483324848190882 2.652785235559786 1.164430233908199
2.483137356139833 2.678945737684960 1.165189126474429
2.483137356139833 2.343155733942145 1.087214074383699
2.483137356139833 2.000825159155397 1.192129303707078
2.482950701356056 3.233550498923695 1.157790065306052
2.482950701356056 2.614104463913917 1.174485249435545
2.482950701356056 2.343342403737623 1.102391586462623
2.482575605618322 2.344089973944810 1.117379573293297
2.482388950834545 3.095086618833907 1.211480781441211
2.481639596626348 2.377724841603943 1.164240482496169
2.479953451976725 2.600090446205843 1.178659215090754
2.479766853010766 2.715944225763798 1.176192672898144
2.479766853010766 2.512825658164825 1.212239560925550
2.479204209404164 2.346518908849212 1.138059197829750
2.479017554620388 2.542536896017821 1.205789030653543
2.478455804098876 3.194122630427817 1.169552504295997
2.477893160492275 3.170952074996913 1.176572401885985
2.477331409970764 2.401082623721123 1.180935779707552
2.477144699369168 2.766583865316934 1.203512352954853
2.476769659449253 2.897760606559039 1.266309666802879
2.476395456796608 2.876645089550784 1.263084684371601
2.476207908927742 2.155920137413753 1.153046958496643
2.475645209503322 3.141988852863744 1.187006694073610
2.475645209503322 2.354180389691286 1.154564743629103
2.475458554719545 2.127143585076061 1.176003034568004
2.475271062668496 3.218601879233937 1.162343081457759
2.475271062668496 2.186004714857704 1.120794533300386
2.475271062668496 2.169187281028138 1.139197480138149
2.474709312146985 2.669228661529440 1.156082415679672
2.474709312146985 2.663062766614378 1.155892777349532
2.474522657363208 2.204504181653443 1.097838570310915
2.474522657363208 2.141531861244907 1.164999148898618
2.474522657363208 2.112007515943709 1.184350739714641
2.474147561625474 2.422571480320334 1.191749913964909
2.473960013756606 2.852913522330010 1.251511657548015
2.473773303155011 3.057527230343359 1.222294576452896
2.473773303155011 2.486665156039650 1.208634962588322
2.473585811103962 2.822081820191510 1.232729434049973
2.473585811103962 2.094629404458752 1.190421880244479
2.473398263235095 3.033235208223514 1.229314474042884
2.473398263235095 3.010437825316326 1.237092811871541
2.473398263235095 2.923173983989665 1.262515317053621
2.473398263235095 2.736125057256751 1.182453564840012
2.473398263235095 2.644563299818640 1.156841534409682
2.473211552633500 3.109101109899159 1.201994680904284
2.473211552633500 2.687354343221584 1.157979703636191
2.473211552633500 2.441631402015144 1.198579720897196
2.472648909026899 2.990257049512454 1.244112709461529
2.472462310060940 3.081632582667726 1.214516238624240
2.472462310060940 2.572808588769887 1.187196558567530
2.472274762192073 2.332130632680365 1.128762735622963
2.472274762192073 2.218892457822289 1.077728086928663
2.472087158505388 2.462746891178859 1.204840386675283
2.471900503721610 2.971197127817644 1.250563013569756
2.471900503721610 2.949707825705794 1.255875035369583
2.471712118585472 2.274763975044140 1.024985901689873
2.471712118585472 2.073887672554089 1.194216229993737
2.471525407983876 2.256451623556517 1.037697210821858
2.471337915932827 2.231038691638530 1.062171072025679
2.470026867020938 2.625503378123830 1.160635771077050
2.470026867020938 2.242810917594859 1.048700983409354
2.469090020761692 2.706227539431836 1.162153556209510
2.469090020761692 2.049782765742361 1.196682659104457
2.468154011769719 2.376790587679008 1.178279712266693
2.467967356985942 2.868049814218682 1.258720967304362
2.467778971849803 2.793491937649295 1.214326487212210
2.467030510726697 2.024743396171648 1.198200218073135
2.466656363891870 2.908411922717225 1.264981633082450
2.466281268154137 2.755932549158748 1.189852739090280
2.465907065501492 2.553001096867890 1.193077947685338
2.464970219242247 2.884680355496452 1.262894819877681
2.464970219242247 2.840207501883655 1.241456528938779
2.464782615555562 2.890472910820558 1.263843350774050
2.464595960771784 2.679132407480438 1.149631998489555
2.464595960771784 2.001011828950875 1.198200218073135
2.464408468720736 3.125357754695176 1.191749913964909
2.464408468720736 3.092657182727787 1.208824714000352
2.464220865034051 3.231495460501047 1.158169568130112
2.464220865034051 2.598408190483352 1.167845193915288
2.464220865034051 2.192918848248911 1.108272975580431
2.464034210250273 2.653345690458857 1.149252721829275
2.464034210250273 2.328954127568776 1.155133884783303
2.463284967677713 2.725847971714797 1.167086188267168
2.462909871939979 2.806758858507361 1.219638509012037
2.462534720384427 2.354740844590358 1.176951791628154
2.461598823028090 2.109952143386582 1.183781598560441
2.461411219341405 3.210193273697314 1.163102200187770
2.461411219341405 2.417339379895299 1.195733902044307
2.460662814036116 2.585141269625287 1.172018933406716
2.460475321985067 2.140036720830532 1.163481589929939
2.460287718298382 2.166945015919214 1.137489943593659
2.460100226247333 3.194870312013164 1.166137657370798
2.460100226247333 2.532259364963228 1.198389969485165
2.459538475725822 2.695015824063659 1.148493603099265
2.458789177335444 2.637088934284681 1.148114326438985
2.458601573648759 2.990257049512454 1.244871375863978
2.458601573648759 2.776860950858888 1.197631190000826
2.457853168343470 3.171139190305029 1.171449792252516
2.457478072605736 3.074718226520200 1.214516238624240
2.457478072605736 2.857585112166894 1.248476087283096
2.457290580554687 2.401643078620194 1.194216229993737
2.456542175249398 2.239260181867038 1.046614170204585
2.456542175249398 2.097619239774863 1.187386196897670
2.456354571562713 2.745655407927714 1.173726356869315
2.456354571562713 2.202075023992722 1.091957294274998
2.454668426913090 3.105550763994897 1.198010692824886
2.454481772129313 2.827687260207500 1.227796688910425
2.453920021607801 2.901684681877815 1.259479859870592
2.453920021607801 2.564399537720625 1.179038604832923
2.453920021607801 2.328767012260661 1.180556503047273
2.453732529556752 2.789941201921475 1.202564048222265
2.453544925870067 3.147781408187850 1.177141316876404
2.453544925870067 2.715196655556611 1.151339535034044
2.453544925870067 2.615225819224698 1.152477817342443
2.453544925870067 2.378472397888861 1.192888196273308
2.452796520564779 2.875150394649047 1.252839691268445
2.452796520564779 2.303914535241744 1.154374992217073
2.451485527470707 2.514694555838253 1.199528251793565
2.451110375915155 2.487412726246838 1.204650748345143
2.449986874872133 2.601958452853995 1.156461918503732
2.449986874872133 2.354927959898474 1.193457337427508
2.449986874872133 2.306343692902465 1.177141316876404
2.449799382821084 3.032113852912733 1.227986440322455
2.449611779134399 2.948960645322166 1.253788335246705
2.449611779134399 2.926349987899536 1.256823792429733
2.449611779134399 2.123032394449169 1.171449792252516
2.449237632299573 3.222899739656307 1.155892777349532
2.449237632299573 3.058088075065989 1.218121063125249
2.449050084430706 2.765275840210675 1.180746028295523
2.449050084430706 2.150688036988718 1.148493603099265
2.448863373829110 2.974560748237349 1.247906946128897
2.448863373829110 2.462560249227922 1.204840386675283
2.448675881778061 2.432101886680377 1.202943437964434
2.448300730222509 2.339604998214324 1.194026591663598
2.448113238171460 3.004458655885822 1.237851930601551
2.447738979700998 2.172924463795117 1.124399131637614
2.447364832866172 2.545339588181275 1.185868524847101
2.447177229179487 2.846934297210426 1.234436744430682
2.447177229179487 2.049035195535173 1.198010692824886
2.446989737128438 2.190676583139987 1.101443168648144
2.446989737128438 2.074822358069393 1.192508806531138
2.446802133441753 2.735751717665796 1.157410449400102
2.446615478657975 2.678384837273251 1.135592768719030
2.446615478657975 2.293076326531762 1.128003956138623
2.446615478657975 2.247295447812706 1.037887075315779
2.446615478657975 2.208428256972219 1.078107702834613
2.446427986606927 2.703424429600283 1.140335875528439
2.446241331823149 3.086677567784645 1.203512352954853
2.446053728136464 2.656895980674039 1.135972045379310
2.446053728136464 2.226927501011638 1.055720767917452
2.445678688216548 2.317742356511519 1.194216229993737
2.445116937695037 2.289712928868376 1.164999148898618
2.444742735042393 2.025116958518923 1.201046036926024
2.443993436652014 3.118257285642970 1.184730129456811
2.443993436652014 2.816849719766475 1.212429312337580
2.443056590392769 3.195991667323945 1.158928234532561
2.442868986706084 2.575611308777882 1.166137657370798
2.442868986706084 2.305222560348003 1.193077947685338
2.442868986706084 1.999890696396413 1.202943437964434
2.442682331922307 2.290460276319244 1.177900435606414
2.441557937794195 2.628866998543535 1.140335875528439
2.440622040437857 2.865433764006164 1.241836031762839
2.440246944700123 2.525719211587395 1.191560162552878
2.440246944700123 2.292702986940807 1.190421880244479
2.440060289916346 3.172633885206766 1.162533059033570
2.439310935708149 2.755745433850632 1.164050844166030
2.439310935708149 2.404072013524595 1.205030138087313
2.439310935708149 2.099301272741034 1.182263813427982
2.439123443657101 2.135365298060888 1.158928234532561
2.438935895788234 3.068178100988907 1.210532250544842
2.438935895788234 2.791623457643966 1.190990795234898
2.438935895788234 2.161339130390585 1.133885345256431
2.437624791058526 2.987827613406334 1.242215308423119
2.436876441571056 2.379593753199642 1.206358171807742
2.436501290015503 2.835722526153169 1.220207876330017
2.436313797964455 2.556925144342126 1.172777939054836
2.436313797964455 2.356235985004732 1.207686318610062
2.436127143180677 2.885988324913630 1.247148053562667
2.435939539493992 3.098636909049089 1.191370524222739
2.435752884710215 3.148528978395037 1.167086188267168
2.435565392659166 2.327832772257996 1.208255459764262
2.435377788972481 2.233841411646525 1.045096158908345
2.435190296921432 2.196095353360500 1.087783328619789
2.435002749052565 2.601585141107579 1.147544959121005
2.435002749052565 2.276258892702195 1.154564743629103
2.435002749052565 2.086407691473925 1.186627417413330
2.434816038450970 2.278688050362916 1.127055199078473
2.434441891616144 2.505164177322750 1.197061935764736
2.434066795878409 2.804516593398437 1.195923540374446
2.434066795878409 2.302980295239080 1.207306928867892
2.433879248009543 2.276446008010311 1.179797497399153
2.433505045356898 2.723979436020387 1.136161909873230
2.433317497488031 2.900376601082477 1.248665725613236
2.432943294835387 3.047997213806874 1.217361944395238
2.432568143279835 2.967833507397939 1.246768776902388
2.432193996445009 3.132645561811816 1.170501261356147
2.431444642236813 2.588317774736876 1.152288065930414
2.431257150185763 2.776487165755294 1.171829295076577
2.431257150185763 2.490963016462020 1.200287370523575
2.430695399664252 2.065292174465669 1.193077947685338
2.430321141193790 2.170869091237990 1.117189821881267
2.429758497587189 2.746215918515865 1.146027287070436
2.429384350752363 3.033608993327108 1.221915186710726
2.429384350752363 2.854969117643456 1.227417186086365
2.429197695968586 2.538612820699044 1.180556503047273
2.429010092281900 2.146203284014552 1.143750609371747
2.429010092281900 2.117800294024134 1.167275939679198
2.428073246022655 3.079203202250686 1.198010692824886
2.427699099187829 2.051090790848620 1.196113404868367
2.427136455581228 2.281304100575433 1.201994680904284
2.426388050275940 3.223273524759901 1.146027287070436
2.426388050275940 2.951950536327357 1.246958189068746
2.426388050275940 2.789380691333324 1.176762040216125
2.426388050275940 2.717626035973651 1.125917029851964
2.426200502407073 3.198046817124753 1.148683467593185
2.426200502407073 2.825258325303099 1.203892081942694
2.426200502407073 2.568884067938472 1.160825522489080
2.425825350851520 2.924855348686878 1.247717307798757
2.425264549232917 3.110222019697302 1.176762040216125
2.423953444503209 2.315873430993551 1.222294576452896
2.423765952452160 3.173381455413953 1.151529286446074
2.423765952452160 2.262057731841465 1.166706911606888
2.423578348765475 2.874589939749976 1.232919185462003
2.423578348765475 2.740609977298157 1.135403130388891
2.423390856714426 2.338483642903543 1.221915186710726
2.423203308845559 2.263178641639608 1.143560857959717
2.423016654061782 2.766210080213340 1.153995602474903
2.423016654061782 2.520300469211422 1.188903982030129
2.422454903540271 2.465549639031394 1.206548149383553
2.422454903540271 2.435091276483850 1.211480781441211
2.422267299853586 2.302045832480095 1.220966542732466
2.422267299853586 2.263178641639608 1.180746028295522
2.422079807802537 2.979045278455197 1.239179964321981
2.422079807802537 2.353246149688621 1.221156520308277
2.421892204115852 2.216463300161568 1.057238326886131
2.421705549332074 2.204504181653443 1.069949636018116
2.421518057281026 2.192544840388998 1.084558006942840
2.421143798810563 2.229730666532271 1.045855164556465
2.420581211021780 3.150584128195845 1.154944133371273
2.420581211021780 2.264673782053983 1.194785371147937
2.420394556238003 3.059956109558680 1.204081720272834
2.420394556238003 2.552253526660703 1.169932007120057
2.420394556238003 2.408744090640928 1.215275131190469
2.420394556238003 2.288404903762117 1.219069594021618
2.419645257847625 2.176848539113893 1.103150705192633
2.419270162109891 2.155359459758363 1.127624453314563
2.419270162109891 2.129572519980463 1.152288065930414
2.419270162109891 1.999143126189226 1.207686318610062
2.419083507326114 3.008382731204598 1.227986440322455
2.418895903639428 2.845065371692458 1.210911527205121
2.418895903639428 2.076317052971129 1.185489248186821
2.418334153117917 2.103038232751695 1.171449792252516
2.418146661066868 2.026612098933298 1.201615404244005
2.417584910545357 3.090041188204349 1.183212570488132
2.416648064286112 2.901124226978744 1.238800461497920
2.416461409502335 2.379780436917390 1.221535910050447
2.416087151031872 2.815728364455694 1.186627417413330
2.415150360590445 2.962601406972905 1.241456528938779
2.414776157937801 2.494139521573609 1.198959223721256
2.414401006382249 2.270092552274495 1.213377843233950
2.414025910644515 3.121433679376399 1.161205025313141
2.414025910644515 2.914391147836809 1.240697523290659
2.412528262766666 2.942607635098988 1.242215308423119
2.412340714897799 2.935693334640542 1.242215308423119
2.412154004296204 2.791996797234921 1.163481589929940
2.412154004296204 2.534875387331206 1.178848966502783
2.411778964376288 2.864499078490861 1.218310475291608
2.411591360689603 3.034169448226179 1.213757346058010
2.411403868638553 2.754811639360605 1.131798418969772
2.411029610168091 2.480872600715544 1.204081720272834
2.410467859646580 2.326524747151737 1.235385501490831
2.410280367595531 2.301111592477430 1.234626495842711
2.410280367595531 2.250098390577020 1.181884536767702
2.410280367595531 2.165076313157565 1.111308545845350
2.410092763908846 2.250285060372498 1.156082415679672
2.409906109125069 3.198421047740985 1.136920689357570
2.409718617074020 2.112942201459012 1.160825522489080
2.409531962290242 3.070607425716866 1.190611518574619
2.409531962290242 2.140036720830532 1.137300192181629
2.408969318683642 3.223460194555378 1.135782407049170
2.408969318683642 2.052585931262994 1.192508806531138
2.408781714996957 3.174128580108502 1.138817977314089
2.408595116030997 2.834975345769540 1.194405981405768
2.408220857560535 2.353246149688621 1.233677851864452
2.407845817640619 3.240277739763105 1.135403130388891
2.407845817640619 2.201327453785535 1.067103704083336
2.407284067119108 3.100692058849897 1.167655442503258
2.407096463432423 2.804703708706553 1.168414221987597
2.406721367694689 3.020528686575441 1.217741560301189
2.405972962389400 3.149837003501296 1.142232824239287
2.405972962389400 2.749392423627454 1.121553652030396
2.405972962389400 2.038757887236900 1.197441438588796
2.405785470338351 2.367260640753873 1.232539795719833
2.405598815554574 2.885427480191001 1.224381728903336
2.405410318782799 2.777421851270597 1.142802191557268
2.404848568261288 2.255330491002055 1.205030138087313
2.404661969295329 2.278127595463844 1.228934971218824
2.403537575167217 2.208241587176741 1.058756225100480
2.403163316696754 3.134140702226191 1.144888891680146
2.402976661912977 2.535435870074817 1.180556503047273
2.402976661912977 2.175353844212157 1.094423384140046
2.402788276776838 2.436959756489180 1.220587266072187
2.402601566175243 2.954566530850794 1.235005885584881
2.402601566175243 2.898694790872624 1.227417186086365
2.402601566175243 2.412107279470264 1.225709649541875
2.402414074124194 2.550758831758966 1.169552504295997
2.402039815653731 2.516749733483601 1.191180772810709
2.401852323602683 2.460130868810882 1.214516238624239
2.401665668818906 2.094629404458752 1.169173227635717
2.401477172047131 2.498624051791456 1.200477008853715
2.401477172047131 2.018950618091223 1.204271471684864
2.401290573081171 2.854408662744385 1.201805042574145
2.401103025212304 3.050987049122985 1.197441438588796
2.401103025212304 2.479937915200241 1.208065821434122
2.400354619907016 2.790688772128663 1.148303964769125
2.400166178953059 2.770695055943826 1.131039300239761
2.399979524169282 2.978110982763452 1.229314474042884
2.399979524169282 2.149940689537850 1.120984284712416
2.399791920482597 2.123593072104560 1.146406676812606
2.399604428431548 3.081071682256016 1.174675000847575
2.399604428431548 2.391926447977312 1.232160066731992
2.399043515177309 2.825258325303099 1.176572401885985
2.398668419439574 2.925602918894066 1.231021784423593
2.398668419439574 2.260749706735206 1.222863943770876
2.398480927388525 2.644376184510524 1.273898592465176
2.398106668918063 2.314939413747205 1.248476087283096
2.397919176867014 2.625503378123830 1.318862213711529
2.397357426345503 3.111343375008083 1.150770280797954
2.397357426345503 2.237765486965301 1.168224470575567
2.396982274789951 2.996610505248269 1.222105051204647
2.396795675823991 2.606630571737136 1.317913682815159
2.396795675823991 2.373800766285167 1.239179964321980
2.396608127955125 2.644376184510524 1.317913682815159
2.396608127955125 2.336054707999141 1.248286222789176
2.396608127955125 2.301298485029227 1.246958189068746
2.396608127955125 2.239073512071560 1.182074062015952
2.395484626912102 2.240194867382341 1.195544263714167
2.395110368441640 3.198421047740985 1.123830103565305
2.395110368441640 2.874029039338266 1.208065821434122
2.395110368441640 2.239073512071560 1.145648010410157
2.394921983305501 2.287844226106727 1.245061127276007
2.394735272703906 3.173941910313024 1.124968385873705
2.394547780652857 2.588691531995930 1.295716499310028
2.394360232783990 3.222152169449120 1.123830103565305
2.394360232783990 3.014361900635103 1.213377843233950
2.394360232783990 2.186191830165821 1.078297228082862
2.393986030131345 2.537491465388263 1.183591847148411
2.393798482262479 2.625503378123830 1.339352086835951
2.393610878575793 2.003627879163393 1.211291030029181
2.392862473270505 3.151145028607555 1.127624453314563
2.392487377532771 2.353059034380505 1.248855477025266
2.392113230697945 2.481993928181785 1.212808928243531
2.391925627011260 3.034730348637889 1.200477008853715
2.391551480176433 2.844878646207900 1.184161214466392
2.391551480176433 2.589439130047657 1.318103434227189
2.391363876489748 3.061825090765729 1.181505033943643
2.391363876489748 2.079306888287241 1.174864639177714
2.390988836569833 2.160031105284327 1.104858128655232
2.390802125968237 2.106962308070471 1.155323636195333
2.390427086048321 2.031283521702942 1.199718003205595
2.390240431264544 2.646431779823970 1.341628651452750
2.390240431264544 2.134057272954629 1.131039300239761
2.390052883395677 3.090975372517935 1.157600200812132
2.390052883395677 2.496942687094242 1.209583493484691
2.390052883395677 2.397719003301418 1.239179964321980
2.389865335526810 2.604761618374628 1.341438900040720
2.389865335526810 2.054641303820121 1.188903982030129
2.389677731840125 2.245613637602854 1.213567594645980
2.389491077056348 2.816288819354765 1.158169568130112
2.389491077056348 2.660820055992816 1.332901556563943
2.389303585005299 2.524037401377542 1.198959223721256
2.389115981318614 2.590560039845800 1.332711805151914
2.389115981318614 2.269531874619105 1.238990099828060
2.388366738746053 2.413415304576523 1.237662066107630
2.387618333440765 2.901124226978744 1.215464995684390
2.387430729754080 3.121994134275471 1.133695367680621
2.387243237703031 2.571687233459106 1.295526747897998
2.386869035050387 2.638209844082824 1.356426773789504
2.386869035050387 2.437333987105412 1.233867829440262
2.386681487181520 2.200953668681941 1.060463648563079
2.386493939312653 2.625503378123830 1.356806276613564
2.386493939312653 2.612796466652198 1.356236909295584
2.386119680842191 2.467044333933131 1.226278903777965
2.384996179799168 2.914952048248519 1.218500339785528
2.384808687748119 2.990817504411525 1.216982441571178
2.384808687748119 2.790875887436778 1.130280633837313
2.384621084061434 2.678571952581366 1.317534179991099
2.384433592010385 2.573181928360842 1.317344428579069
2.384433592010385 2.326150962048143 1.260428503848852
2.384059333539922 2.864499078490861 1.191749913964909
2.383871841488874 2.228609311221490 1.182453564840012
2.383685186705097 2.656522641083084 1.352442559546325
2.383497638836229 2.345210883742953 1.259859249612762
2.383310090967362 3.043138452972794 1.188903982030129
2.383310090967362 2.976242112934563 1.219259232351758
2.383310090967362 2.938683114267574 1.221535910050447
2.383310090967362 2.595045015576285 1.352252808134295
2.383310090967362 2.302045832480095 1.259479859870592
2.382935888314718 2.954005630439084 1.221346271720307
2.382748284628033 2.208054471868625 1.054392734197022
2.382374137793207 2.385199207137902 1.251701408960045
2.382186534106522 2.365765500339499 1.256634154099593
2.382186534106522 2.170869091237990 1.088162831443849
2.382186534106522 2.089771089137310 1.164430233908199
2.381999042055473 3.071541721408611 1.165378877886459
2.381811438368788 3.173941910313024 1.109601009300860
2.381811438368788 2.835348741049575 1.166517160194859
2.381811438368788 2.229543551224155 1.159307737356621
2.381624783585011 3.198421047740985 1.109032094310441
2.381624783585011 2.016708130225980 1.207686318610062
2.381063033063499 2.554682907077742 1.271242525024317
2.380875541012450 3.101065788264411 1.139766508210458
2.380687937325765 2.254396250999390 1.229124722630854
2.380687937325765 2.117613624228657 1.140904790518858
2.380500445274716 2.493766181982654 1.225330372881595
2.380500445274716 2.144521473804699 1.114723505852438
2.380313790490939 3.149837003501296 1.112636579565779
2.380313790490939 2.806945528302839 1.139197480138149
2.380126242622072 3.223460194555378 1.110360128030871
2.379564492100561 2.518244428385338 1.222484554028707
2.379564492100561 2.234028081442003 1.202753686552404
2.378627645841315 3.240277739763105 1.111877800081440
2.378440991057539 3.134140702226191 1.115292873170419
2.378440991057539 2.554495791769626 1.295526747897998
2.378065895319804 2.625503378123830 1.371604398950318
2.377878291633119 2.673900307055403 1.344853860047809
2.377504144798293 2.885614595499117 1.198579720897196
2.377504144798293 2.280182968020971 1.252839691268445
2.377316541111608 3.023892306995146 1.196303156280397
2.376942394276782 2.578600670736815 1.344474357223749
2.376380643755271 2.207867579316828 1.054202982784992
2.376005492199718 2.411920609674786 1.253218967928724
2.375256249627158 2.016708130225980 1.209014352330491
2.375069594843381 2.649047830036487 1.368758467015539
2.374694499105647 2.602519353265704 1.368379190355260
2.374507844321870 2.072579647447831 1.174675000847575
2.374320240635185 2.854782447847978 1.174295724187296
2.374320240635185 2.557672296881215 1.319241716535589
2.374132748584136 2.899068631665298 1.201994680904284
2.373945144897450 2.436959756489180 1.251322019217875
2.373758490113674 3.052481799713802 1.172967690466866
2.373196739592162 2.514320353066561 1.246389160996437
2.373196739592162 2.182827986989796 1.073364482943314
2.373009247541114 3.080885012460538 1.147544959121005
2.373009247541114 2.534314960276674 1.271811779260408
2.372821699672246 2.355675084593023 1.269155598737658
2.372821699672246 2.236457461859043 1.096700174920625
2.372634095985561 2.826566294720278 1.148303964769125
2.372447497019602 3.111717104422597 1.120605008052137
2.372259949150735 2.692960228750213 1.334608866944652
2.372259949150735 2.463307373922471 1.249234979849326
2.372072345464050 3.002963905295006 1.201805042574145
2.371885746498091 2.667547296832225 1.364015586369911
2.371885746498091 2.489281206252167 1.247148053562667
2.371885746498091 2.101356645298161 1.151339535034044
2.371698198629224 2.221882515894719 1.182643316252042
2.371510594942539 2.239260181867038 1.219069594021618
2.371136448107713 2.584767456677153 1.363446332133821
2.371136448107713 2.560662577709965 1.334608866944652
2.370948844421028 2.337362733105400 1.273519089641116
2.370948844421028 2.155359459758363 1.098976852619315
2.370761352369978 2.316434108648942 1.272191055920687
2.370574697586201 2.220947830379416 1.172208571736856
2.370574697586201 2.128638502734117 1.125727165358044
2.370012053979600 2.222816533141065 1.192508806531138
2.369637851326956 2.263178641639608 1.245820019842237
2.369263592856494 3.173755240517547 1.091957294274998
2.369263592856494 2.927098059308441 1.206927539125723
2.369075207720355 2.304101205037222 1.269914491303888
2.368700949249892 3.198794387331940 1.092526322347307
2.368514350283934 2.535996770486526 1.297044419948567
2.368326802415067 3.149649888193180 1.094613248633966
2.367764102990647 2.975494988240014 1.207686318610062
2.367577448206870 2.874402824441860 1.181125531119583
2.367203301372044 2.955313711234423 1.209014352330492
2.366828205634310 3.222712624348191 1.094992638376136
2.366828205634310 3.123302270759889 1.104478625831172
2.366641550850533 2.383517828518418 1.272949948486916
2.366453109896576 3.033235208223514 1.179987248811183
2.366453109896576 2.639144056240949 1.384884623072723
2.366453109896576 2.625690020074768 1.385074374484753
2.366453109896576 2.511704302854044 1.272191055920687
2.366266455112799 2.612049314113109 1.384695097824473
2.366078907243931 2.058565379138897 1.184350739714641
2.365892196642336 2.686607218527035 1.356426773789504
2.365704704591288 2.291581631630025 1.267637813605199
2.365517156722420 2.031096851907464 1.203512352954853
2.365330446120825 2.001946291709859 1.221725661462477
2.365142060984686 2.845626272104167 1.156651669915762
2.364955406200909 3.090414472106225 1.128762735622963
2.364955406200909 3.061637919768533 1.155323636195333
2.364955406200909 2.714075745758469 1.318292959475439
2.364767802514224 2.194600658458763 1.064447636642478
2.364393655679398 2.567202703241258 1.355667994305165
2.364019453026754 2.409304113949631 1.272949948486916
2.364019453026754 2.086220576165808 1.162722810445600
2.363831012072797 2.540667942655312 1.320190247431958
2.363082606767508 2.659138691295602 1.381090273323464
2.362895058898641 2.487038941143244 1.271811779260408
2.362333308377130 2.592989392418299 1.380710883581295
2.362145760508263 2.435465061587444 1.272570558744747
2.361959105724486 2.167318801022807 1.085317125672850
2.361959105724486 2.113502656358083 1.137869446417719
2.361583954168934 2.461438893917141 1.272001304508657
2.361208914249018 2.217771325267827 1.182833180745962
2.361022203647423 2.218892457822289 1.170880538016426
2.361022203647423 2.140410728690445 1.110929043021289
2.360834711596373 2.221134722931212 1.193457337427508
2.359897865337128 3.013428161834156 1.187386196897670
2.359897865337128 2.221508508034806 1.154185466968823
2.359897865337128 2.207307124417757 1.057428078298160
2.359711210553351 2.901684681877815 1.189093846524050
2.359149460031840 2.227301286115232 1.206168420395712
2.358775257379196 2.327646102462518 1.282056546199783
2.358586760607420 2.224871905698192 1.133885345256431
2.358400161641462 3.173007670310359 1.073364482943314
2.358400161641462 2.237018139514433 1.219828486587848
2.358212557954777 2.706227539431836 1.348079181724758
2.357464208467306 2.864872807905375 1.164240482496169
2.357275767513349 3.149462772885064 1.074882381157664
2.357089056911754 2.678384837273251 1.374450104721317
2.356901564860705 2.512265203265753 1.301597662264055
2.356527362208061 3.042765169070919 1.163671115178189
2.356527362208061 2.915512503147590 1.192129303707078
2.356527362208061 2.019324180438497 1.213757346058010
2.356339814339194 3.070607425716866 1.136920689357570
2.356153103737598 2.247669010159981 1.234816134172851
2.355964718601459 2.836843435951311 1.139007728726119
2.355964718601459 2.550571716450850 1.347320176076638
2.355778063817683 2.260749706735206 1.248096810622817
2.355590515948816 2.575424611137865 1.373501573824948
2.355590515948816 2.070524274890704 1.174675000847575
2.354842110643527 2.991751688725111 1.193077947685338
2.354653669689570 3.101439629057085 1.102202061214373
2.354653669689570 2.733883237660465 1.317913682815159
2.354467014905793 3.199728961469084 1.071657172562605
2.354279411219108 2.625690020074768 1.398734214513107
2.354092812253149 3.226076244767896 1.080004764627352
2.354092812253149 2.381088462023648 1.290973279418729
2.353342620777680 2.976990072965309 1.194785371147937
2.353155965993904 2.939243624855725 1.195544263714167
2.352968418125037 2.274203520145068 1.261377034745221
2.352594215472392 2.305969907798871 1.280538874149214
2.352594215472392 2.097993247634776 1.150011501313615
2.352406667603525 3.241585876247523 1.083419724634441
2.352406667603525 2.954192801436281 1.196113404868367
2.352220012819748 2.289526259072899 1.272380807332717
2.352031571865791 2.525719211587395 1.325502495395567
2.352031571865791 2.460504208401837 1.292680929045109
2.351657369213147 2.649795400243675 1.395698757330079
2.351657369213147 2.355675084593023 1.292491064551189
2.351657369213147 2.179277919530933 1.072985206283035
2.351470714429370 2.698566114278841 1.367999800613090
2.351283166560503 2.484610006238842 1.298562205081027
2.351283166560503 2.219453135477679 1.191939439213158
2.351095618691636 3.123115489586252 1.077538448598523
2.351095618691636 2.217397762920552 1.172208571736856
2.350908963907858 2.601958452853995 1.395319480669799
2.350346264483439 2.885801265294594 1.171260040840486
2.350159665517480 2.217958440575943 1.182263813427982
2.350159665517480 2.125087767006296 1.122881685750826
2.349784569779746 2.151996062094977 1.095751417860475
2.349597914995969 3.106111218893968 1.089111362340218
2.349597914995969 2.406501393941635 1.296475278794368
2.349035271389368 3.023331406583436 1.171260040840486
2.349035271389368 2.435651731382921 1.296854781618428
2.348848616605590 2.557672296881215 1.366292150986710
2.348473520867857 2.855716687850644 1.146975931048696
2.348473520867857 2.734069907455943 1.338782719517971
2.348473520867857 2.211417869532011 1.066155173186967
2.348286866084079 3.079203202250686 1.116620906890848
2.348286866084079 2.007365284686691 1.227796688910424
2.348098369312305 3.150397458400367 1.055151400599472
2.348098369312305 2.531698910064157 1.339162335423921
2.347911770346345 3.190759566898910 1.057807581122221
2.347911770346345 2.669228661529440 1.391904294498930
2.347537567693701 3.051547504022057 1.145648010410157
2.346974868269282 3.174502365212096 1.052685084570643
2.346787376218233 2.583646101366372 1.390955763602561
2.346600665616638 2.899442416768891 1.174675000847575
2.346600665616638 2.501240074159434 1.316206146270670
2.345663875175211 2.752942713842637 1.317154677167039
2.345663875175211 2.055575321066467 1.190232128832449
2.345289672522566 2.493952851778131 1.314119219984011
2.345289672522566 2.041000375102143 1.203892081942694
2.345102124653699 2.756866789161413 1.293249957117419
2.344915469869922 3.211687968599050 1.061791682283509
2.344352826263321 2.720054970878052 1.360980016104992
2.344352826263321 2.070898282750617 1.177141316876404
2.344165222576636 2.745468348308678 1.227606937498394
2.343791075741810 3.084621916782119 1.103530094934803
2.343791075741810 3.003150630779563 1.176762040216125
2.343604420958032 3.132458446503700 1.055910293165701
2.343229269402480 2.473771546928001 1.311083762800982
2.342854229482564 2.022127345959130 1.221346271720307
2.342667518880969 3.225889574972419 1.064827139466538
2.342480026829920 2.460130868810882 1.310514621646782
2.342105824177276 2.689223268739553 1.385453990390703
2.342105824177276 2.083978533813204 1.164430233908199
2.341918276308409 2.446115932232991 1.309755729080553
2.341918276308409 2.394729154063037 1.308427582278233
2.341730728439542 2.874776609545453 1.153995602474903
2.341356525786898 2.380340877894191 1.307289186887943
2.341356525786898 2.365765500339499 1.305771514837374
2.341168977918031 3.151705483506626 1.039973888520548
2.341168977918031 2.424253736042825 1.309945254328802
2.341168977918031 2.416965594791705 1.309755729080553
2.340982323134253 3.111717104422597 1.069570246275946
2.340982323134253 2.927471343210317 1.180177000223213
2.340982323134253 2.540667942655312 1.358134310333994
2.340982323134253 2.225432583353582 1.200856285513994
2.340607227396519 2.097432569979385 1.151908789270134
2.340419679527653 2.753503614254346 1.334988369768712
2.340419679527653 2.638770298981895 1.410496992748723
2.340419679527653 2.625503378123830 1.410496992748723
2.340232075840967 2.343715743328578 1.301977052006225
2.340045476875008 3.059582825656805 1.127055199078473
